ply
format ascii 1.0
comment VCGLIB generated
element vertex 795
property double x
property double y
property double z
element face 0
property list uchar int vertex_indices
end_header
0.2390339821577072 -0.3081989586353302 0.1030768528580666 
0.07127691060304642 0.2178853899240494 0.2335066944360733 
0.03440363705158234 -0.0543816089630127 0.346701055765152 
0.07213573157787323 0.08200716972351074 0.2751500904560089 
-0.203780472278595 -0.1009368896484375 0.1105534881353378 
-0.1780033558607101 -0.3287253975868225 -0.08281811326742172 
0.1626567393541336 -0.1374606490135193 -0.2389283031225204 
0.09360606968402863 0.01161593943834305 0.2645293176174164 
0.07842186093330383 0.1061461046338081 0.2736805379390717 
0.08323095738887787 0.1625621318817139 0.220648467540741 
0.2376990616321564 -0.1905901879072189 -0.08935161679983139 
-0.1980758756399155 -0.3300074934959412 -0.0275547094643116 
0.1724397540092468 -0.2617208063602448 -0.3104502558708191 
-0.2402161955833435 -0.1980849057435989 -0.08447768539190292 
0.1037222221493721 -0.3886017501354218 -0.02437172643840313 
0.08362171798944473 0.2951559722423553 0.1645744740962982 
-0.09567743539810181 -0.1748492270708084 -0.3219297528266907 
0.1243498101830482 -0.08194314688444138 -0.1589409112930298 
-0.02269358187913895 -0.08082734048366547 -0.07445293664932251 
-0.05819195136427879 -0.2303881645202637 0.3300555348396301 
0.3382656872272491 -0.3038949370384216 0.006027739029377699 
0.1157563030719757 -0.1694393754005432 -0.306028425693512 
0.0848858505487442 0.08175477385520935 0.1408887505531311 
0.4247898459434509 -0.387801468372345 0.01258029323071241 
0.06740948557853699 0.2296661138534546 0.3797500133514404 
0.28886479139328 -0.1870848387479782 0.09660910069942474 
0.454947292804718 -0.3370189964771271 -0.01689587347209454 
-0.03920737281441689 0.2845299243927002 0.2398204654455185 
-0.2599168717861176 -0.3339193761348724 -0.4195378720760345 
0.07310041040182114 0.2942855954170227 0.08492819219827652 
0.1807329803705215 -0.3589236736297607 0.09792419523000717 
0.02768908999860287 -0.1049312651157379 0.3539697527885437 
-0.1888920664787292 -0.1537183821201324 -0.1916248649358749 
0.04762206226587296 0.251660168170929 0.3389710187911987 
0.107618659734726 0.1463466882705688 0.3565177917480469 
0.1475667804479599 -0.09320319443941116 -0.1828493773937225 
-0.005141607951372862 -0.03130140900611877 -0.2852279543876648 
-0.01839467883110046 0.1902956813573837 0.05481674522161484 
0.06228120997548103 0.2741993963718414 0.2163142710924149 
0.04684781655669212 0.2531951367855072 0.3554497361183167 
0.0749385878443718 0.07692113518714905 0.3267319202423096 
0.0630820021033287 -0.3615368902683258 -0.1828168928623199 
-0.1994854062795639 -0.1093549728393555 -0.06111522018909454 
-0.00984504260122776 0.2436701953411102 0.4056781828403473 
0.2870470881462097 -0.2991299033164978 0.02090043947100639 
0.2190444618463516 -0.1548232585191727 -0.1154868006706238 
0.08861462026834488 0.1949061304330826 0.3089186251163483 
-0.2252980917692184 -0.1300140172243118 -0.05077432468533516 
0.1898122727870941 -0.353837251663208 0.09460380673408508 
0.4699785113334656 -0.3872927725315094 -0.0121818371117115 
-0.2160287946462631 -0.2939656674861908 -0.05960773676633835 
-0.06058657914400101 0.2007889896631241 0.4188263118267059 
0.1215436831116676 -0.2015894204378128 -0.2890495359897614 
0.239478126168251 -0.298579216003418 0.1392617523670197 
-0.103055901825428 0.1667884886264801 0.327842116355896 
-0.08555117249488831 0.1543578803539276 0.2189912647008896 
0.4001009464263916 -0.2888956367969513 0.00525418808683753 
0.0776526927947998 0.0001979169610422105 0.2928699851036072 
-0.3182289004325867 -0.2369347512722015 -0.226667732000351 
-0.2766613662242889 -0.2703033983707428 -0.3910799324512482 
0.1994570642709732 -0.09900742769241333 0.06022867560386658 
-0.05559421330690384 -0.07694362103939056 0.02994713187217712 
0.2026496976613998 -0.1550958305597305 0.2380603849887848 
0.1395929157733917 -0.3337026834487915 0.2380995899438858 
0.07816921174526215 -0.2879352867603302 -0.2690735757350922 
0.2046595215797424 -0.1008467748761177 0.09957408159971237 
0.213099479675293 -0.3274194002151489 0.1503055542707443 
-0.2661734521389008 -0.2516812384128571 0.04433644562959671 
0.09998982399702072 0.1291320770978928 0.304449737071991 
-0.1275247633457184 -0.07014159113168716 0.1049046963453293 
0.2859690487384796 -0.1919107288122177 0.127458244562149 
-0.4185594618320465 -0.3876669108867645 0.0284609030932188 
0.001541741658002138 -0.3302561044692993 -0.245587483048439 
0.2041830867528915 -0.1012791320681572 0.1114860624074936 
-0.06700504571199417 0.2093639969825745 0.2821107506752014 
-0.03297233581542969 -0.3558127284049988 0.2527609765529633 
-0.08899145573377609 -0.3391736745834351 -0.2002901434898376 
-0.0550389476120472 0.2075169384479523 0.06999435275793076 
-0.03928826376795769 0.3133561909198761 0.1838897466659546 
0.3025608360767365 -0.23318712413311 0.1720557659864426 
0.2247952371835709 -0.2110945135354996 0.1191829293966293 
-0.05940701067447662 0.3151983618736267 0.1222729086875916 
0.112588919699192 -0.05696377903223038 0.1440960168838501 
-0.0007971441955305636 0.09188464283943176 0.08229931443929672 
0.1554005891084671 -0.2879737317562103 0.2663947343826294 
-0.2598760426044464 -0.2373452186584473 -0.0061423578299582 
0.1053648144006729 0.1404968053102493 0.365288108587265 
0.06873543560504913 0.1823055297136307 0.2639263868331909 
0.2102030813694 -0.1613317430019379 0.2311823964118958 
-0.0486418716609478 0.2952298223972321 0.2252286672592163 
0.3865344226360321 -0.2416547834873199 0.09641646593809128 
0.1197611466050148 -0.09262628853321075 -0.2831544876098633 
0.1934234499931335 -0.3264183104038239 0.1894987523555756 
0.03538493812084198 0.02937234751880169 0.1185029149055481 
-0.489138275384903 -0.3532522916793823 0.03582022339105606 
0.1969316750764847 -0.107607938349247 -0.05955489724874496 
-0.01623117551207542 0.00161850219592452 0.07413546741008759 
0.1519207507371902 -0.2140782624483109 0.291838139295578 
-0.1971507370471954 -0.3206042349338531 0.1932913064956665 
0.06635703146457672 -0.07358806580305099 0.05210987105965614 
-0.2300979197025299 -0.2718990743160248 -0.0559237077832222 
-0.2449565529823303 -0.1584118604660034 0.1608235687017441 
0.222655177116394 -0.1180643886327744 0.1303800493478775 
-0.1160572096705437 -0.2215246111154556 0.3110288083553314 
0.1872140318155289 -0.2826069295406342 -0.1369872838258743 
-0.3071943819522858 -0.217863067984581 0.1588874310255051 
-0.01841961219906807 -0.3761011064052582 -0.1739277839660645 
0.1577290296554565 -0.180337592959404 -0.2538506686687469 
0.2278205305337906 -0.1199950575828552 0.02304203808307648 
0.1824915558099747 -0.3436440825462341 0.171113133430481 
0.2358354926109314 -0.3117323517799377 0.1058219820261002 
-0.09165407717227936 -0.06559595465660095 -0.2880271375179291 
0.1475371122360229 -0.3715494275093079 -0.001844605780206621 
0.08184072375297546 0.1451080441474915 0.2320762872695923 
-0.3799792230129242 -0.242390051484108 0.112987719476223 
0.04836032167077065 0.2434786111116409 0.3099417388439178 
-0.2183661311864853 -0.1105775982141495 0.07002295553684235 
-0.09026040881872177 -0.1670647710561752 0.3200535774230957 
-0.1802103221416473 -0.2759018838405609 0.2535181045532227 
0.2324736565351486 -0.3038614690303802 0.008693361654877663 
-0.04620042815804482 0.08017295598983765 0.1014702320098877 
-0.05253347754478455 0.09867572039365768 0.4263018071651459 
-0.1758600324392319 -0.08751670271158218 0.08059586584568024 
0.05084053054451942 -0.2818495035171509 0.3112435042858124 
-0.1357229650020599 -0.1531666964292526 0.2981372773647308 
0.4338463246822357 -0.3715907633304596 -0.01583878695964813 
0.0893857479095459 0.08713125437498093 0.3589646220207214 
-0.08145834505558014 0.09695928543806076 0.3261634707450867 
0.002710917964577675 -0.3506288230419159 -0.2173008918762207 
0.1415982693433762 -0.1841428726911545 -0.2728365361690521 
0.08372186869382858 -0.1181187331676483 -0.3411616683006287 
0.1919927597045898 -0.2947898209095001 0.2294818907976151 
0.01744487509131432 -0.4073048532009125 -0.017690759152174 
0.06945234537124634 0.2036183029413223 0.08481907844543457 
0.4385223686695099 -0.2868237793445587 0.08665073662996292 
-0.07833628356456757 -0.06944392621517181 0.0738123431801796 
-0.2609955370426178 -0.1638568192720413 0.1076958328485489 
-0.09992829710245132 -0.01981732249259949 0.2600073516368866 
-0.02078697271645069 0.06919416040182114 0.4203854203224182 
0.08704884350299835 -0.3435440361499786 -0.1951920390129089 
-0.4415501654148102 -0.3484686613082886 -0.02179150283336639 
0.2709374725818634 -0.1769563257694244 0.08370038866996765 
-0.09760326147079468 -0.03814917802810669 0.271322637796402 
0.3997079730033875 -0.296684205532074 -0.0005088894395157695 
0.09968623518943787 -0.07450071722269058 0.05537369847297668 
0.09408092498779297 0.08659864962100983 0.2375975400209427 
0.1272271424531937 -0.08301893621683121 -0.2326936423778534 
-0.0852774903178215 0.2983378171920776 0.09255339205265045 
-0.2547158598899841 -0.2809379994869232 0.04856061562895775 
0.1434271484613419 -0.1706607490777969 0.2973122000694275 
-0.1576360017061234 -0.3630481958389282 0.1596689075231552 
0.08530864864587784 0.264180988073349 0.1946343183517456 
0.2147311568260193 -0.2041438370943069 -0.2519946396350861 
-0.1964220851659775 -0.104804091155529 -0.04024944826960564 
0.118967592716217 -0.06389988958835602 0.1281781047582626 
0.08103054016828537 0.07717877626419067 0.1371874809265137 
0.09433173388242722 -0.1765245646238327 -0.3226150870323181 
0.1093244031071663 -0.2621848881244659 -0.2667175829410553 
0.04796857386827469 0.1364975720643997 0.07644765079021454 
0.07750145345926285 0.1820283085107803 0.399389773607254 
-0.2040548473596573 -0.198481559753418 -0.1671076565980911 
-0.06217513233423233 0.09461473673582077 0.4168444573879242 
-0.2061215192079544 -0.324176162481308 -0.02053732611238956 
-0.1012311801314354 -0.3560671508312225 0.233257070183754 
-0.1838387995958328 -0.3521406054496765 0.0140582537278533 
0.01654850691556931 0.1627167314291 0.05595668777823448 
0.01782859861850739 0.2888981997966766 0.235087662935257 
0.1066929697990417 -0.01526312530040741 0.2105980813503265 
-0.03486145287752151 0.2570406794548035 0.3314606845378876 
0.1653173863887787 -0.3065430819988251 -0.1582085639238358 
0.2231456786394119 -0.1729132086038589 -0.1265411227941513 
0.2395750284194946 -0.3082697093486786 0.07052524387836456 
0.1320959031581879 -0.09881002455949783 -0.2671542465686798 
-0.2392720729112625 -0.2003333866596222 -0.08974716812372208 
0.1626837998628616 -0.07964371144771576 0.1196563690900803 
0.3134564161300659 -0.2598572969436646 -0.3052048087120056 
0.1636749058961868 -0.3096657693386078 0.244083434343338 
-0.09580265730619431 0.1328603625297546 0.1444422900676727 
-0.05824337154626846 0.2218291759490967 0.4034687578678131 
0.07180871069431305 0.07127752155065536 0.3785490989685059 
0.2198328524827957 -0.1138267144560814 0.01696539111435413 
-0.2380838692188263 -0.2410240322351456 -0.08161992579698563 
-0.08411525934934616 0.2094080597162247 0.3168708682060242 
-0.2187373340129852 -0.244312971830368 -0.3554303646087646 
0.08556189388036728 0.2081331163644791 0.3189962208271027 
-0.2251113206148148 -0.1619758009910583 -0.1053365468978882 
-0.02394085191190243 0.2551673650741577 0.3790043592453003 
0.1058240756392479 -0.3522318005561829 0.2360834330320358 
-0.1366745680570602 -0.3394438624382019 -0.1409094631671906 
0.2680903375148773 -0.2283626347780228 0.01775956153869629 
0.008291468024253845 0.2285020053386688 0.4206614792346954 
0.1813995093107224 -0.08875656872987747 0.09755691140890121 
-0.07888977974653244 0.1213011145591736 0.2494840323925018 
0.006657008081674576 0.3179462254047394 0.1263789981603622 
-0.2339792102575302 -0.2974378764629364 -0.003788972506299615 
-0.09275477379560471 -0.3219574093818665 -0.2224807292222977 
0.1109358221292496 -0.06793368607759476 0.09794247150421143 
0.04958229139447212 0.05891770496964455 0.3664204478263855 
-0.2199325412511826 -0.3332331478595734 0.07931485027074814 
0.1783821433782578 -0.3027082681655884 0.2367450445890427 
-0.1891156584024429 -0.302984893321991 0.2248402684926987 
-0.3131975829601288 -0.2266958653926849 -0.2171836048364639 
-0.2124145030975342 -0.1600282788276672 -0.1412638425827026 
0.07272547483444214 0.2236187011003494 0.314025342464447 
-0.009496078826487064 -0.0494999885559082 0.1212054789066315 
-0.2434506416320801 -0.180733323097229 -0.06804079562425613 
0.04037434980273247 0.210394099354744 0.06351196020841599 
-0.3933659493923187 -0.2666885256767273 0.1294185966253281 
-0.04963309690356255 0.07680884748697281 0.1050558835268021 
0.1439912170171738 -0.08843305706977844 -0.1208803206682205 
-0.2810307741165161 -0.3280618488788605 -0.3774731159210205 
0.2255177944898605 -0.2697081863880157 0.2051824033260345 
-0.0866161435842514 -0.2196907997131348 -0.3103581368923187 
-0.08649892359972 0.08714917302131653 0.3740139603614807 
0.09661165624856949 0.1638132929801941 0.1809089928865433 
-0.1555475443601608 -0.2377526313066483 0.2867556214332581 
0.09972449392080307 0.1173551008105278 0.3316489458084106 
-0.1918629556894302 -0.1342726051807404 0.239264577627182 
-0.09126274287700653 0.005218066275119781 0.2704434990882874 
0.1086984649300575 -0.09646289050579071 -0.3064843416213989 
-0.326250433921814 -0.340138703584671 0.1234343722462654 
0.1409498900175095 -0.07084150612354279 0.12894406914711 
-0.008102944120764732 -0.03708023577928543 0.3515995740890503 
0.1309158205986023 -0.2327341288328171 0.3021137118339539 
0.1530103236436844 -0.08180580288171768 0.0580686517059803 
0.2203584164381027 -0.1257857829332352 -0.05469720438122749 
0.1031491756439209 -0.07831393927335739 -0.293892115354538 
-0.1726363599300385 -0.08467187732458115 0.1842815577983856 
-0.1090580374002457 0.2657030522823334 0.1477595418691635 
0.02015865780413151 0.2452086955308914 0.06385373324155807 
0.09471612423658371 0.1085027307271957 0.3783107697963715 
-0.1800080388784409 -0.2642769813537598 -0.1241933703422546 
0.1974616944789886 -0.1472456753253937 0.2402841299772263 
0.2350274473428726 -0.2034941017627716 0.07389871031045914 
-0.09092385321855545 0.2081830203533173 0.3771110475063324 
0.1791041642427444 -0.3337929844856262 -0.06605112552642822 
0.1133526936173439 0.2194556593894958 0.08006982505321503 
0.04160059988498688 0.2197706252336502 0.06507807970046997 
-0.06430841237306595 0.2346894145011902 0.3744935989379883 
0.06033747270703316 0.06998315453529358 0.395864874124527 
0.01516411453485489 0.1237252652645111 0.06791806221008301 
-0.09907492995262146 0.2825267016887665 0.08584209531545639 
-0.2075140625238419 -0.1131907403469086 -0.04819061234593391 
-0.2371592968702316 -0.18106509745121 0.1998279392719269 
-0.3631796836853027 -0.240211695432663 0.1336796134710312 
-0.1845140159130096 -0.09303963929414749 0.03968062624335289 
0.09134981036186218 0.1210997328162193 0.3935855031013489 
0.1108371242880821 -0.2905398011207581 -0.2430869042873383 
-0.3364944458007812 -0.2221911549568176 0.14046311378479 
-0.1023827195167542 0.1272116303443909 0.3325971961021423 
0.1317902356386185 -0.08471940457820892 -0.1644158661365509 
0.2476615458726883 -0.3257324993610382 0.1432908326387405 
0.06468291580677032 0.2249469012022018 0.39436936378479 
-0.2651406228542328 -0.1657689809799194 0.07769787311553955 
-0.2648274600505829 -0.3125903606414795 -0.425299346446991 
0.07785783708095551 0.07659269124269485 0.3070793449878693 
-0.08092780411243439 -0.1226251125335693 0.3173923790454865 
0.05615654960274696 -0.1590093225240707 -0.354423999786377 
0.06395170092582703 -0.3162774443626404 -0.2471372336149216 
-0.09586625546216965 0.1215214878320694 0.1497345268726349 
0.1662955433130264 -0.3631267845630646 0.01382270641624928 
0.2362110465764999 -0.3126094043254852 0.06745791435241699 
0.1586408168077469 -0.3653615415096283 -0.003299998585134745 
-0.08234847337007523 0.178415060043335 0.2181280106306076 
0.0982382670044899 0.07151626795530319 0.2318035811185837 
-0.1712611466646194 -0.3585799634456635 0.002921994077041745 
0.02270450815558434 -0.1782032400369644 0.3391043543815613 
-0.2124675959348679 -0.3391886949539185 0.06877768039703369 
-0.3490188419818878 -0.2175235152244568 0.1064489334821701 
0.1736690849065781 -0.09319247305393219 -0.02084047719836235 
0.08777908235788345 0.09772098064422607 0.3306641578674316 
0.4418513774871826 -0.3553317487239838 0.08138062059879303 
0.4907991290092468 -0.3449927568435669 0.02215674892067909 
0.2219238430261612 -0.2883725762367249 0.1956056952476501 
0.08561345934867859 0.1355812400579453 0.2291633039712906 
0.05389664322137833 -0.05598714575171471 0.3325439095497131 
0.1796164512634277 -0.2635080814361572 0.2599875032901764 
-0.2391019761562347 -0.3240494728088379 0.1420628130435944 
-0.1785707324743271 -0.08662863075733185 0.1422183066606522 
0.04276987537741661 -0.2505243718624115 -0.3135346174240112 
0.05132713541388512 0.05797853693366051 0.3824683427810669 
0.3127323985099792 -0.2624940872192383 -0.1649090051651001 
0.4685106575489044 -0.3832862973213196 -0.01542121730744839 
0.07229757308959961 0.07872284203767776 0.3909635543823242 
0.1758355051279068 -0.1058584228157997 -0.1333662271499634 
-0.2129344940185547 -0.1288791298866272 -0.08959072083234787 
0.1943760067224503 -0.175836518406868 -0.1985127180814743 
-0.1446876972913742 -0.1424382328987122 -0.2729215025901794 
-0.1859401762485504 -0.09332426637411118 0.04774640500545502 
0.01352651696652174 -0.3992619514465332 -0.1066717579960823 
-0.06488622725009918 -0.2101632207632065 -0.3281189203262329 
-0.2398233860731125 -0.2124156951904297 0.200116828083992 
0.09000952541828156 0.1216899901628494 0.1327967196702957 
0.06085477024316788 0.06429751217365265 0.3594911396503448 
0.02777732349932194 -0.04558884352445602 0.3483233451843262 
0.1041388809680939 -0.07033174484968185 -0.2465400546789169 
-0.2160653918981552 -0.2885874509811401 -0.09827740490436554 
0.05104481801390648 -0.03904654458165169 -0.3321104645729065 
0.08111768960952759 -0.350181370973587 -0.1891175210475922 
0.02786619774997234 0.153768926858902 0.4465426504611969 
0.2056296318769455 -0.1860812604427338 -0.1777858138084412 
0.1047409921884537 0.002192959422245622 0.2202579379081726 
0.06116380169987679 0.1865572482347488 0.07525920122861862 
-0.09782750159502029 -0.003465675050392747 0.259489506483078 
-0.1978176385164261 -0.101830318570137 -0.005337027367204428 
-0.1015312820672989 -0.3836342990398407 0.174144521355629 
-0.4196555614471436 -0.3201033473014832 -0.01321089640259743 
0.09969651699066162 0.1132890582084656 0.3641550242900848 
-0.1459491699934006 -0.08842170238494873 -0.1096774265170097 
-0.07595767825841904 0.1285914033651352 0.2651937007904053 
-0.2857978045940399 -0.240157812833786 -0.3278848528862 
-0.02611509896814823 -0.05483436584472656 0.3507693409919739 
-0.0008211394888348877 0.008673299103975296 0.3357241749763489 
-0.2130778729915619 -0.2905648648738861 0.05347736179828644 
0.2946066558361053 -0.3205721378326416 -0.3143179416656494 
-0.1942054331302643 -0.3261014223098755 -0.3698232471942902 
0.04354452714323997 0.02872990071773529 0.3208324015140533 
-0.2369538545608521 -0.3098518550395966 0.1091459766030312 
-0.01541433483362198 -0.1950523406267166 0.3432793021202087 
-0.06661312282085419 -0.001883338089101017 0.3074200749397278 
0.2134926617145538 -0.1515015065670013 -0.1265703141689301 
-0.2689285576343536 -0.1724779009819031 0.0828305184841156 
-0.07617718726396561 0.3032698035240173 0.1613820642232895 
-0.1748365163803101 -0.09955979883670807 -0.09948533773422241 
0.1898656338453293 -0.3230461776256561 -0.06765194237232208 
0.2560253739356995 -0.2776704430580139 0.04650453850626945 
0.1988325566053391 -0.3114852607250214 -0.07271991670131683 
0.2281073927879333 -0.2807467877864838 0.1933718025684357 
0.1904487609863281 -0.239443227648735 -0.3115052878856659 
-0.09630142897367477 0.09883935749530792 0.3542055785655975 
0.2732930779457092 -0.2216316163539886 0.06541983783245087 
-0.2188311815261841 -0.2116485983133316 0.2300240695476532 
-0.110975868999958 -0.03074235282838345 0.2217040508985519 
0.3960894644260406 -0.2852538526058197 0.007730539888143539 
-0.05419854819774628 -0.08090313524007797 -0.06302878260612488 
-0.239210769534111 -0.2118773013353348 -0.1061035543680191 
0.2723830342292786 -0.2254606634378433 0.05207113921642303 
0.2325865775346756 -0.2314999252557755 0.2113132476806641 
-0.1952149420976639 -0.2878409922122955 0.2309375554323196 
0.1524128466844559 -0.0737873762845993 0.147923618555069 
-0.1322841793298721 -0.08476659655570984 -0.1359221786260605 
-0.2010817527770996 -0.1044480204582214 -0.01643273420631886 
0.08358687162399292 0.2618125975131989 0.1992629617452621 
0.1418514251708984 -0.2348429560661316 -0.2634378969669342 
0.1312130838632584 -0.3808587789535522 0.03360557183623314 
0.2321585267782211 -0.149271160364151 -0.07011173665523529 
0.05249518528580666 0.1140125468373299 0.08879712224006653 
-0.0516747459769249 0.2270001918077469 0.2837603390216827 
0.08354222774505615 -0.227029100060463 0.32321897149086 
0.2006851732730865 -0.3312842547893524 0.1676582247018814 
0.2908941805362701 -0.2286930084228516 0.03327512741088867 
-0.1558067947626114 -0.08435002714395523 0.2283500880002975 
0.161515399813652 -0.3666417002677917 0.1228630021214485 
0.1244820132851601 -0.2425765246152878 0.3027535080909729 
0.04808428883552551 -0.0282800979912281 0.3328777849674225 
0.4425433278083801 -0.3462932705879211 0.08751572668552399 
0.1541193723678589 -0.3603399395942688 0.174600750207901 
0.1250282227993011 -0.08315173536539078 -0.09992213547229767 
0.04885412380099297 0.2150931656360626 0.06710152328014374 
0.1714076697826385 -0.3587181568145752 0.004508065991103649 
-0.2161799371242523 -0.2877544164657593 -0.08884523063898087 
0.1030533239245415 -0.01129954867064953 0.2470273375511169 
-0.3854251503944397 -0.2900075316429138 0.00305379880592227 
-0.095018669962883 -0.368889182806015 0.2171083092689514 
0.001418172498233616 -0.1600852161645889 -0.3655210733413696 
-0.1533934473991394 -0.08898520469665527 -0.05028686672449112 
-0.2046290189027786 -0.3142053484916687 -0.04851518198847771 
0.2382072359323502 -0.1285927444696426 0.09675838798284531 
0.02102517522871494 -0.1286072283983231 -0.3744098246097565 
0.2841949760913849 -0.1893274784088135 0.122974269092083 
0.05996585264801979 0.1436148881912231 0.08260205388069153 
-0.2738994657993317 -0.2195409089326859 -0.2804715931415558 
-0.2526843845844269 -0.2318788021802902 -0.3295800983905792 
-0.1940746158361435 -0.3458274900913239 0.02138269692659378 
0.1299294680356979 -0.2487605214118958 -0.2632143795490265 
-0.12415961176157 0.2268539369106293 0.09480235725641251 
-0.151633694767952 -0.1391878873109818 0.2833430469036102 
-0.100884422659874 0.183145135641098 0.3603193759918213 
0.07538343966007233 0.1797566413879395 0.2730138003826141 
0.2469547539949417 -0.1517495661973953 -0.02573980763554573 
-0.4576977491378784 -0.3553494513034821 0.06956514716148376 
0.08822331577539444 -0.2086769789457321 0.3250207006931305 
0.1651774197816849 -0.1675688326358795 -0.2418102473020554 
0.2617025375366211 -0.168056532740593 0.02045807801187038 
-0.2357995510101318 -0.1362570375204086 0.1451369225978851 
-0.2727472484111786 -0.328563928604126 -0.4034811854362488 
-0.1833688318729401 -0.2838063836097717 -0.1425319463014603 
-0.1912769377231598 -0.1393292546272278 -0.1722750812768936 
-0.07057402282953262 0.2509245276451111 0.2248834371566772 
-0.2586915791034698 -0.2163780480623245 0.161658838391304 
-0.4954361617565155 -0.3667439520359039 -0.008496669121086597 
0.05929961428046227 0.215591162443161 0.2514955401420593 
0.06165409088134766 -0.299217015504837 -0.2680121958255768 
-0.01970545388758183 -0.4005939066410065 -0.09088147431612015 
-0.3798965513706207 -0.3639587759971619 0.0815766453742981 
0.267713874578476 -0.1761484295129776 0.1236876174807549 
0.1222595870494843 -0.09085555374622345 -0.2742730975151062 
-0.2317296266555786 -0.308693915605545 0.139744445681572 
0.3312303125858307 -0.3521184623241425 0.07671517878770828 
-0.1919126510620117 -0.2054421901702881 -0.1859182864427567 
0.2576414346694946 -0.2706043124198914 0.03442894294857979 
0.2712820470333099 -0.1929199993610382 0.09449531137943268 
0.2483145743608475 -0.291606605052948 0.04561225324869156 
0.2170723080635071 -0.1356568336486816 -0.09252460300922394 
0.2331480830907822 -0.2967966198921204 -0.009166744537651539 
-0.441782146692276 -0.2967318296432495 0.01382097136229277 
0.1404735296964645 -0.3798016011714935 0.06891150772571564 
-0.2216102629899979 -0.2295158952474594 0.227257251739502 
-0.1710212975740433 -0.1404798775911331 -0.2234193682670593 
-0.1203301846981049 -0.3597845137119293 -0.1199879571795464 
0.1419957131147385 -0.09035103023052216 -0.1957656890153885 
-0.1945886462926865 -0.3508751094341278 0.05163043737411499 
-0.0335383452475071 -0.4007413685321808 -0.07435417920351028 
0.1557150185108185 -0.09813319146633148 -0.179555207490921 
-0.1116671487689018 -0.08211461454629898 -0.07799361646175385 
0.2494155168533325 -0.272523432970047 0.1535604745149612 
-0.2181143462657928 -0.2567304372787476 -0.378807932138443 
0.1065348982810974 -0.0276152640581131 0.2459267526865005 
-0.1146100983023643 -0.07396389544010162 0.06892313808202744 
-0.01696525886654854 -0.1414255946874619 0.3512919247150421 
-0.09097713977098465 0.07208811491727829 0.1566582918167114 
0.09118594974279404 -0.1061448529362679 -0.3313935697078705 
-0.04850683361291885 0.1736054569482803 0.4359078407287598 
-0.06775739789009094 0.002809566911309958 0.304957389831543 
-0.195041611790657 -0.296871542930603 -0.1161177158355713 
0.1482140421867371 -0.3378090560436249 0.2257813066244125 
-0.1462717205286026 -0.2997983992099762 0.2646894156932831 
-0.06325214356184006 0.3044328391551971 0.09644689410924911 
-0.05967193469405174 -0.3941829204559326 0.1746028214693069 
0.2185449749231339 -0.3101995885372162 0.1738001257181168 
0.1184166595339775 -0.1873090416193008 -0.2977786362171173 
-0.01363006699830294 0.07511653751134872 0.4267904460430145 
0.04979816451668739 0.2594063282012939 0.07766851037740707 
0.1960388273000717 -0.1901531666517258 0.2553669512271881 
0.04649122431874275 -0.3707070648670197 0.2316244840621948 
0.09720610827207565 0.1148836985230446 0.1578698307275772 
0.2256543785333633 -0.169813871383667 0.2138881832361221 
-0.3066842257976532 -0.2201769649982452 -0.2308816164731979 
0.1239397302269936 -0.3849829733371735 0.06275878846645355 
0.1265276670455933 -0.1067945212125778 -0.2859368622303009 
-0.1173176392912865 0.2515183091163635 0.1365366578102112 
0.1615616828203201 -0.3328439295291901 0.2196128219366074 
0.09801141917705536 -0.3917341828346252 0.04109456017613411 
-0.1910297572612762 -0.09628058969974518 0.1640434563159943 
-0.2193492203950882 -0.2835440337657928 -0.08542071282863617 
0.07858351618051529 -0.07292001694440842 -0.1578210592269897 
0.1892266273498535 -0.2329075038433075 0.2613472938537598 
0.3934957087039948 -0.2947342097759247 0.0004366972134448588 
-0.2478115111589432 -0.3302253782749176 0.1343691051006317 
0.1033976152539253 -0.3902986943721771 0.04129196330904961 
0.08311443030834198 0.1207738593220711 0.4068206548690796 
0.1036395952105522 0.1354141980409622 0.3676365315914154 
0.09922359138727188 0.1777132153511047 0.1398268938064575 
0.09248094260692596 -0.06283301115036011 -0.2618356943130493 
0.173195406794548 -0.3319100439548492 -0.08626978844404221 
0.2770298421382904 -0.3163397014141083 0.1632237732410431 
-0.0999666154384613 -0.3243068158626556 0.2687308788299561 
-0.1598810404539108 -0.3504824340343475 -0.06443620473146439 
-0.2386209517717361 -0.3060428500175476 0.02648781426250935 
0.2148675173521042 -0.3089015483856201 -0.03274950385093689 
-0.1807120442390442 -0.1064803525805473 -0.1161619648337364 
-0.0775565430521965 0.1255031675100327 0.2494800090789795 
0.1400067359209061 -0.08887385576963425 0.2509736716747284 
-0.1663922816514969 -0.0848873108625412 0.06941208243370056 
-0.07474836707115173 0.1507867127656937 0.09546663612127304 
0.2940063774585724 -0.2296995967626572 -0.1463492661714554 
-0.07590658962726593 0.2231827974319458 0.3782740235328674 
0.08425138145685196 -0.1889318972826004 -0.3255386054515839 
0.413888156414032 -0.319208025932312 -0.01316352561116219 
-0.03193771094083786 -0.05968791618943214 -0.2008964717388153 
0.2253006547689438 -0.1171688660979271 0.1020261645317078 
0.1620436459779739 -0.2519283592700958 0.2778439521789551 
-0.0892409086227417 0.2086166739463806 0.3378883302211761 
-0.1127774938941002 -0.09553276747465134 0.2775813341140747 
0.07884766161441803 0.2405858337879181 0.2186622768640518 
-0.1816946119070053 -0.3226111829280853 -0.0900435745716095 
0.146630197763443 -0.07419466972351074 0.113957442343235 
-0.08170190453529358 -0.0337454080581665 0.2944178581237793 
-0.2625572681427002 -0.3247525990009308 0.151563286781311 
-0.08912409842014313 -0.08133523166179657 -0.06384070217609406 
0.1901606917381287 -0.1408670693635941 -0.1768895536661148 
-0.1532240211963654 -0.1618582755327225 -0.2602149546146393 
-0.2113103121519089 -0.1423928737640381 -0.120448499917984 
0.2198556810617447 -0.1670424938201904 -0.1269458085298538 
-0.1139274686574936 -0.08275066316127777 -0.04522861912846565 
0.3969849050045013 -0.3813173770904541 0.03091405145823956 
-0.129708856344223 -0.3802791237831116 0.009340126067399979 
0.1222188025712967 -0.1842123866081238 0.3106731176376343 
0.09135854989290237 0.2821271121501923 0.168982058763504 
0.2414590418338776 -0.2168456166982651 0.1976809054613113 
0.3874598145484924 -0.3323160111904144 0.1254099309444427 
-0.03720928728580475 -0.06722443550825119 0.07482939213514328 
-0.2261721342802048 -0.3294286727905273 0.1115006506443024 
0.2730547487735748 -0.2234515249729156 0.08794189989566803 
0.21402907371521 -0.2905200123786926 -0.09382621198892593 
-0.01632056571543217 -0.1142537146806717 0.3581564426422119 
0.07957126945257187 0.2425657510757446 0.07312649488449097 
-0.4830174148082733 -0.3396807610988617 -0.004860646091401577 
0.2394042611122131 -0.1908615231513977 -0.08371023833751678 
0.3704748451709747 -0.2314827591180801 0.1023474633693695 
0.07125485688447952 -0.128495916724205 0.3253903985023499 
-0.2008377462625504 -0.3396784365177155 0.1415367126464844 
0.1432868391275406 -0.1325518786907196 -0.2732771337032318 
-0.1456377655267715 -0.3666474223136902 -0.03881402313709259 
-0.4365816712379456 -0.2786276042461395 0.06259743124246597 
0.0684826448559761 0.1080959364771843 0.4181556701660156 
-0.04336263239383698 -0.3520511984825134 0.2560192048549652 
-0.06291376054286957 0.0648496076464653 0.3600139319896698 
0.4078719019889832 -0.3849290907382965 0.03331689164042473 
0.2542456686496735 -0.1820381432771683 0.1623307466506958 
-0.08619619160890579 0.1080229803919792 0.3959249556064606 
-0.4611870944499969 -0.3104194104671478 0.01267295330762863 
-0.1436179280281067 -0.3410303592681885 0.2254016995429993 
-0.1719966977834702 -0.09178829938173294 0.2167140543460846 
0.4154843986034393 -0.2653075754642487 0.04960424080491066 
-0.09590467065572739 0.171002671122551 0.184437558054924 
0.2634086012840271 -0.2642041146755219 0.05898996070027351 
-0.1278838813304901 -0.08254550397396088 0.2486718595027924 
0.08660000562667847 -0.1709997802972794 -0.3301239609718323 
0.1005920097231865 0.19158835709095 0.3711043000221252 
-0.1179578676819801 0.2365600764751434 0.08778353780508041 
0.08006136864423752 -0.3960729539394379 0.07898454368114471 
0.0818595215678215 0.09446845948696136 0.1303540170192719 
0.04520490020513535 0.2482618540525436 0.3730996251106262 
0.400875449180603 -0.3744423687458038 0.06557163596153259 
0.09634346514940262 -0.08143764734268188 -0.04128348082304001 
0.02365954220294952 0.3154618740081787 0.1211765930056572 
0.06516370177268982 0.2307357043027878 0.3117817044258118 
0.4509389698505402 -0.3486309945583344 0.07969529181718826 
0.0928487554192543 -0.07500229030847549 -0.156992182135582 
-0.07242142409086227 -0.3776329755783081 0.2114574015140533 
0.1319805383682251 -0.06127607822418213 0.2018581926822662 
0.30270054936409 -0.2120544612407684 -0.1839826554059982 
-0.04411830008029938 -0.127821147441864 0.3428260684013367 
-0.1211191266775131 -0.3777402937412262 -0.04865141212940216 
0.1081040799617767 0.1373436897993088 0.3331641852855682 
0.1870684623718262 -0.1657446026802063 -0.2037770003080368 
-0.1788779497146606 -0.3551210463047028 0.01193149480968714 
-0.1765370965003967 -0.1649963110685349 0.2702873945236206 
-0.3640706539154053 -0.2308091521263123 0.1149369105696678 
-0.0968329980969429 -0.2575289905071259 -0.280156284570694 
0.304302304983139 -0.2674341201782227 0.1831312328577042 
-0.2240903228521347 -0.3013573884963989 -0.02276531979441643 
-0.1805685758590698 -0.130560964345932 -0.1892061233520508 
0.08538775891065598 -0.2285397052764893 -0.3063724040985107 
0.09903249144554138 -0.1699640303850174 -0.3204039931297302 
0.1698709428310394 -0.201120525598526 -0.2448162436485291 
-0.2274743020534515 -0.1805089116096497 -0.1236742213368416 
0.07077962160110474 -0.07254468649625778 -0.1543187946081161 
0.08054362237453461 0.2204032689332962 0.3667734563350677 
0.09820022433996201 -0.00764835299924016 0.2599654793739319 
-0.05325040593743324 0.1092320382595062 0.09137430042028427 
0.4824314117431641 -0.3891659677028656 0.006369400769472122 
0.06567464023828506 0.2075280100107193 0.2444409281015396 
0.153766855597496 -0.1062808483839035 -0.2256271094083786 
0.1195575967431068 -0.3847073018550873 0.02344644628465176 
0.1694103330373764 -0.08720912039279938 0.2144233584403992 
-0.0629839301109314 0.09708024561405182 0.1058808639645576 
0.2316735982894897 -0.1267934143543243 -0.01027200371026993 
0.411006897687912 -0.257724940776825 0.06909699738025665 
0.3092158734798431 -0.2461699992418289 -0.1592367589473724 
-0.09674187749624252 -0.06579119712114334 -0.250775009393692 
0.4143921136856079 -0.3321536779403687 0.1130611971020699 
0.1846763491630554 -0.09131214767694473 0.1606677621603012 
0.1885927766561508 -0.2024605125188828 0.2630786299705505 
-0.093143031001091 -0.1325391680002213 0.3068892359733582 
0.06587386876344681 0.1634832471609116 0.4241939783096313 
-0.08797362446784973 0.1227771863341331 0.1277072429656982 
-0.1385650038719177 -0.3789019286632538 0.09027767181396484 
0.02825143933296204 0.2577512264251709 0.3681216239929199 
0.2585738599300385 -0.2749676406383514 0.1074250414967537 
-0.1298395395278931 -0.07292348891496658 0.09120812267065048 
0.074456587433815 -0.2249834984540939 -0.3146227896213531 
0.06065816432237625 0.2347715348005295 0.2426614165306091 
-0.1061537489295006 0.2246356904506683 0.1555058509111404 
0.0848730280995369 -0.06915908306837082 -0.1921327859163284 
0.163992777466774 -0.3556983172893524 -0.0355239026248455 
0.4350796937942505 -0.2802075445652008 0.04301676899194717 
0.0710139274597168 -0.3981859087944031 0.03341345861554146 
0.02243725024163723 0.1181693971157074 0.4439168572425842 
-0.2888112962245941 -0.2969264388084412 0.1769924163818359 
0.09821713715791702 -0.04597542807459831 0.2740339040756226 
-0.03623181954026222 -0.2721138894557953 0.3194681107997894 
0.06763646751642227 0.2331534624099731 0.3712829947471619 
0.091379314661026 -0.01878667064011097 0.2757794260978699 
0.1651623100042343 -0.07994385808706284 0.1460729539394379 
0.02849126793444157 0.02994321472942829 0.3448508679866791 
0.05376932770013809 0.02561243809759617 0.3136008977890015 
0.3308824598789215 -0.3532175123691559 0.05578722432255745 
-0.2037982642650604 -0.2621132433414459 0.2371129989624023 
-0.4164969325065613 -0.2841883599758148 0.01537479367107153 
0.03548922389745712 0.05302657932043076 0.3770912885665894 
0.03248108550906181 0.1438825577497482 0.06586924195289612 
0.07844633609056473 0.1885280311107635 0.2241872549057007 
0.2169699221849442 -0.1144114807248116 0.1429254114627838 
-0.2543443441390991 -0.2083990573883057 0.1761232614517212 
0.04461288824677467 0.1059247031807899 0.4335671961307526 
0.1195210367441177 -0.383539617061615 -0.004440476186573505 
-0.3819071054458618 -0.2478609979152679 0.1207631677389145 
0.06873912364244461 0.06517618149518967 0.2975888252258301 
0.05799663066864014 0.06184670329093933 0.3635731041431427 
-0.0288739986717701 0.2575765252113342 0.3680045008659363 
-0.01492986641824245 -0.2017306685447693 -0.3478035926818848 
0.09915916621685028 0.193531259894371 0.3652971982955933 
0.2418936192989349 -0.1832883805036545 0.19129978120327 
0.09865039587020874 0.1749932169914246 0.3891690075397491 
0.004784116987138987 -0.168628916144371 -0.3637638986110687 
0.2717174291610718 -0.2342413365840912 0.05931824818253517 
-0.3101528584957123 -0.2343734800815582 0.03338953480124474 
0.03285585343837738 0.217372864484787 0.4226675629615784 
-0.1497319042682648 -0.3719832897186279 0.01684675738215446 
-0.1726624220609665 -0.3549736738204956 0.1572768837213516 
0.06709093600511551 -0.0222630500793457 0.1445794552564621 
-0.1908282935619354 -0.3421030342578888 -0.009062028490006924 
0.1345316469669342 -0.08527667820453644 -0.05215053260326385 
-0.05761400237679482 -0.4000985622406006 -0.03304322808980942 
-0.3394266664981842 -0.2520883977413177 0.1647325456142426 
0.2043151557445526 -0.1093113571405411 0.1785586774349213 
0.04696216434240341 -0.06933353841304779 -0.1620036661624908 
-0.2089586704969406 -0.3036811053752899 -0.06048374995589256 
-0.1282023936510086 -0.34736567735672 -0.1363400518894196 
-0.1279172003269196 -0.2195476442575455 -0.2756340801715851 
-0.2599699795246124 -0.2283394038677216 0.1552729606628418 
0.1544162034988403 -0.2267616540193558 -0.2572991251945496 
0.2492449134588242 -0.1854754984378815 -0.05257410556077957 
0.3053470849990845 -0.2194309830665588 -0.2316746413707733 
0.4180890023708344 -0.2658377289772034 0.08851832896471024 
0.1103039607405663 -0.3867302238941193 -0.01698329672217369 
-0.2535574734210968 -0.2319456040859222 -0.03247513249516487 
0.1945041567087173 -0.1009712442755699 0.1823783963918686 
0.04669146984815598 -0.40255406498909 0.01947549730539322 
-0.1375306397676468 -0.1739351451396942 -0.2802497148513794 
-0.0131829958409071 0.1631451398134232 0.4482904970645905 
0.2363942265510559 -0.2742405533790588 0.1846240311861038 
0.111015260219574 -0.3886715769767761 0.08644816279411316 
0.2414752542972565 -0.1742848604917526 0.1853232383728027 
-0.2528639733791351 -0.2219458967447281 -0.03838310018181801 
-0.09139812737703323 0.09319715201854706 0.3673612177371979 
-0.0840151309967041 0.1337473094463348 0.4086038172245026 
0.396443098783493 -0.360406756401062 0.08981921523809433 
0.08441774547100067 0.05377482995390892 0.2697935998439789 
0.08005239069461823 -0.07433027774095535 -0.1482961475849152 
-0.2207868546247482 -0.3221116364002228 0.02246746979653835 
0.002454855944961309 0.2870012223720551 0.2370336353778839 
0.2382806837558746 -0.28102046251297 -0.01993677765130997 
-0.02403784729540348 0.02821318432688713 0.3400784134864807 
0.1207677647471428 -0.2655046284198761 0.2968200445175171 
0.1730729788541794 -0.1001873984932899 0.2295267432928085 
-0.2919783294200897 -0.2209689766168594 0.1653546988964081 
0.2801547050476074 -0.3217983543872833 0.1566138118505478 
0.01364490017294884 -0.374862402677536 0.229640319943428 
-0.383547455072403 -0.3197810649871826 -0.008683321066200733 
0.2305210530757904 -0.2217121422290802 0.1446529626846313 
-0.2726602852344513 -0.2209905087947845 0.09752887487411499 
-0.09685032069683075 0.1094974875450134 0.1581847667694092 
-0.409644216299057 -0.3282367885112762 0.118247352540493 
0.09818227589130402 0.1203263625502586 0.1971501559019089 
0.09207332134246826 0.1546391248703003 0.4007182717323303 
-0.2517213821411133 -0.2540892660617828 -0.01660449989140034 
0.1311034709215164 -0.2087482362985611 -0.276275098323822 
0.002884132787585258 0.1735371500253677 0.4462723433971405 
0.2617074847221375 -0.2083365023136139 0.1546097993850708 
0.1592983603477478 -0.1270228326320648 -0.2400030791759491 
0.07796540111303329 0.1249124333262444 0.4144379198551178 
0.223861426115036 -0.1426351070404053 -0.08566034585237503 
0.1814446747303009 -0.1679179221391678 -0.2152476012706757 
0.1555396467447281 -0.07426148653030396 0.1871729493141174 
-0.4527073204517365 -0.2957698702812195 0.03533310070633888 
0.2377029359340668 -0.3300511538982391 0.07894381135702133 
-0.2620318531990051 -0.265032023191452 0.04687315598130226 
0.07948023825883865 -0.07098287343978882 0.06815648823976517 
0.1351280510425568 -0.100253202021122 -0.2628652155399323 
-0.3969689309597015 -0.3681941032409668 0.07715560495853424 
0.1161129325628281 -0.1837969124317169 -0.3011246025562286 
0.114222452044487 -0.3748875260353088 -0.08083256334066391 
0.3590015172958374 -0.2584980130195618 0.02586552500724792 
-0.1472705155611038 -0.09371417760848999 -0.1916461586952209 
0.1645062118768692 -0.2606794536113739 0.2728466391563416 
0.2779915630817413 -0.2004464864730835 -0.1607184559106827 
0.258794367313385 -0.2743354737758636 0.0564851202070713 
0.02526994235813618 0.223952978849411 0.4202002286911011 
-0.218534991145134 -0.1265965700149536 -0.06389974802732468 
-0.2238056510686874 -0.1149420812726021 0.09007301181554794 
0.238303929567337 -0.2787643671035767 -0.1097646951675415 
0.1448022574186325 -0.2796442210674286 -0.2133901417255402 
0.08872593939304352 0.1383983939886093 0.2203662842512131 
0.006760186981409788 -0.06719173491001129 -0.1685321927070618 
-0.1925204992294312 -0.1228274926543236 -0.1386894881725311 
0.1137129664421082 -0.08565213531255722 0.2725903987884521 
0.1895343810319901 -0.2688693702220917 -0.1468408405780792 
0.08906295150518417 -0.2763230204582214 -0.2723570466041565 
-0.09659349173307419 -0.3589408993721008 0.2315118610858917 
-0.1680236011743546 -0.1598165929317474 -0.2366235107183456 
0.06068867817521095 -0.3919826745986938 -0.1007463335990906 
0.4116595685482025 -0.2590087652206421 0.08489590883255005 
-0.06058936938643456 0.04870010167360306 0.126482829451561 
0.05518429353833199 -0.01625887304544449 0.3234438300132751 
0.184431865811348 -0.1185537502169609 0.235115259885788 
-0.09241510182619095 -0.2373157441616058 -0.296743780374527 
0.2656823396682739 -0.2409126758575439 -0.1157379522919655 
0.05518646538257599 0.07233306020498276 0.1115034148097038 
0.03562426194548607 -0.1036608144640923 0.3499488234519958 
-0.1005882173776627 0.2847273647785187 0.09141771495342255 
-0.2075806856155396 -0.2669615149497986 0.1359094530344009 
0.1425736397504807 -0.3772522509098053 0.04862558469176292 
0.1677397340536118 -0.2155035436153412 -0.2421784400939941 
-0.07559535652399063 -0.3435196578502655 0.2584718763828278 
-0.0379842072725296 -0.01945582218468189 -0.3570556640625 
0.2282525151968002 -0.3057388365268707 0.159448578953743 
0.1650555282831192 -0.3579653203487396 -0.0236076433211565 
0.005690642166882753 -0.02671244740486145 0.3492432534694672 
-0.1482466161251068 -0.1404038369655609 -0.267636775970459 
0.4679753184318542 -0.3200773894786835 0.005013526417315006 
0.1272647529840469 -0.06282006204128265 0.1442607641220093 
-0.214105635881424 -0.1154357194900513 -0.0329875685274601 
-0.1723644137382507 -0.1262205690145493 -0.206409364938736 
0.2703958451747894 -0.3203780949115753 -0.1538539230823517 
0.1425619423389435 -0.3397623300552368 -0.1295443624258041 
-0.2450000643730164 -0.14494489133358 0.132260799407959 
0.3793266713619232 -0.2973683774471283 0.1475339829921722 
0.03742770850658417 -0.1106489598751068 0.3497483134269714 
-0.2378717362880707 -0.134395569562912 0.127940371632576 
0.07426357269287109 0.2303006500005722 0.3530889749526978 
0.2146608382463455 -0.1287291795015335 0.1919521540403366 
0.05749152973294258 0.2990031838417053 0.1924908459186554 
0.2403108775615692 -0.2812491357326508 -0.0142741072922945 
0.1471633911132812 -0.3483209908008575 0.2105554044246674 
-0.3563549816608429 -0.2234110087156296 0.07566101849079132 
0.1728843301534653 -0.1613101214170456 -0.2275701612234116 
0.07667149603366852 0.07817203551530838 0.3827522993087769 
-0.06995775550603867 0.2845104932785034 0.1975042074918747 
-0.1472677290439606 -0.3742325603961945 0.03102194890379906 
0.09177643060684204 0.2128443568944931 0.2001089155673981 
-0.2322545349597931 -0.2293613851070404 0.2117554396390915 
-0.1485297381877899 -0.1988364160060883 -0.2633516192436218 
-0.3564712107181549 -0.2311867028474808 0.05702758580446243 
-0.1156485676765442 -0.3852455019950867 0.002441436285153031 
0.08472277224063873 0.1034729853272438 0.3953168094158173 
-0.09588129073381424 0.2872015535831451 0.08691907674074173 
0.1019124016165733 0.1572583019733429 0.3768074810504913 
-0.07622744143009186 -0.3900711238384247 0.1768647283315659 
0.07688909769058228 0.07895884662866592 0.322246789932251 
0.3184735774993896 -0.2330641895532608 0.1662970781326294 
-0.07255014032125473 0.04614162445068359 0.1388055980205536 
-0.1873549073934555 -0.3563756942749023 0.08000568300485611 
-0.1834778338670731 -0.3174226880073547 -0.1354789882898331 
-0.184014692902565 -0.09831877052783966 0.2063799351453781 
0.2406283915042877 -0.2516263723373413 -0.1087663918733597 
-0.2567040920257568 -0.149376392364502 0.0693194791674614 
-0.1780021786689758 -0.08666446059942245 0.1480635106563568 
-0.2025700211524963 -0.2723420560359955 -0.121083565056324 
0.4308201968669891 -0.3050945401191711 0.1094799563288689 
0.1886212378740311 -0.1224307492375374 0.2328805923461914 
-0.02005402185022831 0.1864011436700821 0.4420907199382782 
-0.1578887403011322 -0.1040690466761589 -0.1993195861577988 
0.05956725031137466 0.09307968616485596 0.1049719080328941 
0.0627126544713974 0.00409347889944911 0.3109810650348663 
-0.1964453756809235 -0.1550549864768982 -0.1761342734098434 
-0.01903610117733479 -0.3325463235378265 0.2772960364818573 
0.3357292115688324 -0.3475844860076904 0.02619054727256298 
0.1905260980129242 -0.09889382869005203 -0.009599542245268822 
0.2917954921722412 -0.2254812717437744 -0.2753161489963531 
-0.1884235143661499 -0.3470456898212433 0.00507067097350955 
-0.2347408533096313 -0.20352903008461 0.0746176615357399 
0.1803950518369675 -0.1759859919548035 0.2688738405704498 
-0.2694146037101746 -0.1888738870620728 -0.1887949854135513 
0.353173553943634 -0.2962096929550171 0.003865150501951575 
-0.06602589040994644 -0.09665305912494659 -0.3546496629714966 
0.161221832036972 -0.2919851541519165 0.2597444951534271 
-0.08257332444190979 0.1982209384441376 0.2989583313465118 
-0.03041800297796726 -0.4035310447216034 0.09115348756313324 
0.06485539674758911 -0.04603280499577522 0.3194671273231506 
0.07114975154399872 0.0790075808763504 0.2844910621643066 
-0.4838751256465912 -0.3736347258090973 0.03272689506411552 
0.2069151997566223 -0.2808455228805542 0.2222631722688675 
0.1169708669185638 -0.2444413751363754 -0.2721117734909058 
0.03852226957678795 0.1714160591363907 0.4413146674633026 
0.09006549417972565 -0.07077571749687195 -0.1883831918239594 
0.2085814625024796 -0.1492729634046555 -0.1370344012975693 
-0.09173372387886047 0.1435453146696091 0.289030522108078 
-0.02785778231918812 0.1354352831840515 0.06706598401069641 
-0.4402886927127838 -0.2832828462123871 0.07311626523733139 
0.0291396789252758 -0.07945194840431213 -0.01047727651894093 
0.03591792285442352 0.09366203099489212 0.0890505462884903 
-0.1290691494941711 -0.3775665163993835 0.1554111391305923 
0.1503242403268814 -0.3695889115333557 -0.006624257192015648 
0.08920793235301971 -0.2041577994823456 -0.3156783878803253 
-0.269778698682785 -0.2480147629976273 -0.3610142767429352 
-0.1190740913152695 -0.07945473492145538 -0.1770196855068207 
-0.1414043456315994 -0.0750197246670723 0.09479935467243195 
0.0924675241112709 0.06245807558298111 0.2519536018371582 
-0.08510763943195343 0.07514040917158127 0.2602517306804657 
0.106798343360424 0.1312947422266006 0.3404774367809296 
0.1335847526788712 -0.2789695858955383 -0.2427187114953995 
0.1428939998149872 -0.3740246891975403 0.001034955610521138 
