ply
format ascii 1.0
comment VCGLIB generated
element vertex 2231
property double x
property double y
property double z
element face 0
property list uchar int vertex_indices
end_header
-0.033 -0.08 -0.081 
0.285 -0.322 -0.382 
-0.09 -0.073 0.059 
0.311 -0.25 0.025 
-0.217 -0.277 0.044 
-0 0.049 0.396 
-0.098 0.167 0.174 
0.053 -0 0.134 
-0.064 0.012 0.141 
0.211 -0.218 -0.281 
0.047 0.035 0.33 
-0.14 -0.281 -0.226 
-0.114 0.257 0.094 
0.293 -0.213 -0.239 
-0.134 -0.064 0.216 
0.033 0.064 0.103 
-0.252 -0.298 0.027 
0.004 -0.309 0.296 
-0.284 -0.192 0.063 
0.051 -0.401 0.135 
-0.28 -0.284 -0.4 
-0.283 -0.298 0.022 
-0.24 -0.347 -0.379 
-0.059 -0.049 -0.331 
-0.274 -0.307 -0.416 
-0.292 -0.223 -0.149 
0.197 -0.245 -0.334 
-0.004 -0.076 0.046 
-0.053 -0.119 -0.363 
0.206 -0.262 -0.122 
0.315 -0.248 -0.267 
0.06 0.266 0.078 
0.014 -0.176 0.343 
0.18 -0.247 -0.311 
-0.023 0.318 0.128 
0.218 -0.211 -0.269 
0.309 -0.28 -0.343 
-0.08 -0.057 -0.274 
-0.299 -0.341 0.112 
0.311 -0.243 -0.163 
-0.297 -0.194 0.073 
-0.015 -0.245 -0.323 
0.284 -0.327 0.034 
0.232 -0.204 0.083 
0.249 -0.208 0.052 
-0.27 -0.245 0.07099999999999999 
0.066 -0.24 0.326 
0.029 -0.002 0.123 
-0.216 -0.299 0.137 
0.224 -0.312 0.002 
-0.245 -0.202 0.064 
-0.045 -0.062 -0.393 
0.269 -0.189 0.031 
0.074 0.235 0.076 
-0.259 -0.254 -0.38 
0.076 -0.109 0.318 
-0.253 -0.33 -0.432 
-0.219 -0.319 0.082 
0.2 -0.279 0.082 
0.268 -0.286 -0.417 
-0.121 -0.305 -0.226 
0.294 -0.275 0.019 
0.325 -0.269 0.016 
-0.132 -0.125 0.287 
-0.2 -0.284 0.08799999999999999 
0.179 -0.275 -0.351 
0.199 -0.309 -0.407 
-0.015 -0.233 -0.331 
-0.16 -0.094 -0.116 
-0.043 0.046 0.359 
0.149 -0.271 -0.171 
-0.003 0.263 0.331 
0.22 -0.228 0.057 
0.166 -0.246 -0.14 
-0.053 -0.182 -0.347 
-0.081 0.164 0.276 
-0.288 -0.339 0.054 
-0.011 -0.08 -0.08599999999999999 
0.328 -0.333 0.018 
-0.026 -0.173 0.342 
-0.228 -0.242 -0.356 
0.211 -0.106 0.068 
0.247 -0.338 -0.243 
0.205 -0.246 -0.349 
-0 0.222 0.425 
0.054 -0.341 0.266 
0.03 -0.038 0.346 
0.077 -0.228 -0.311 
-0.217 -0.309 0.061 
0.199 -0.27 0.08599999999999999 
0.01 0.39 0.172 
0.032 -0.404 0.066 
-0.093 -0.289 -0.257 
0.296 -0.275 -0.369 
0.07000000000000001 -0.349 0.253 
-0.004 0.05 0.399 
0.024 0.031 0.354 
0.208 -0.315 0.184 
0.307 -0.299 -0.183 
-0.232 -0.281 -0.426 
-0.286 -0.235 -0.312 
0.206 -0.248 0.066 
-0.261 -0.263 0.122 
0.173 -0.22 -0.214 
0.113 -0.297 -0.236 
-0.179 -0.265 -0.17 
0.02 0.033 0.36 
0.266 -0.251 -0.369 
0.228 -0.214 -0.12 
-0.082 -0.172 -0.333 
0.248 -0.285 0.139 
-0.08699999999999999 0.029 0.163 
-0.24 -0.307 0.161 
-0.201 -0.246 0.106 
-0.007 -0.029 -0.294 
-0.128 -0.299 -0.228 
-0.203 -0.33 -0.405 
0.257 -0.252 0.025 
-0.246 -0.197 0.078 
0.095 -0.318 0.276 
0.202 -0.257 0.07099999999999999 
-0.106 -0.128 0.294 
0.004 -0.364 0.24 
0.228 -0.236 -0.341 
0.223 -0.128 0.167 
-0.258 -0.318 0.158 
0.31 -0.302 -0.26 
-0.077 -0.038 0.15 
0.102 0.188 0.126 
0.038 -0.039 -0.408 
-0.31 -0.22 -0.189 
0.208 -0.305 0.078 
0.254 -0.335 0.112 
-0.248 -0.321 0.046 
0.368 -0.338 -0.003 
-0.332 -0.319 0.01 
-0.254 -0.333 0.078 
0 0.219 0.067 
0.305 -0.333 0.029 
-0.209 -0.297 0.066 
0.014 -0.393 -0.132 
0.195 -0.233 -0.304 
0.232 -0.332 0.118 
-0.209 -0.241 -0.132 
-0.284 -0.324 -0.381 
0.128 -0.118 0.284 
0.077 -0.095 -0.338 
0.245 -0.185 -0.204 
0.1 0.08799999999999999 0.208 
-0.008 -0.054 0.122 
0.154 -0.121 0.272 
-0.134 -0.063 0.168 
-0.297 -0.21 -0.174 
0.053 -0.266 0.319 
-0.128 -0.082 -0.225 
0.267 -0.231 -0.121 
0.111 -0.079 0.024 
0.056 -0.154 -0.356 
-0.278 -0.278 -0.399 
-0.032 -0.043 -0.247 
0.117 -0.303 0.279 
-0.285 -0.341 0.089 
0.125 0.227 0.097 
-0.237 -0.318 0.149 
-0.285 -0.288 -0.136 
0 -0.266 0.323 
-0.183 -0.125 -0.175 
0.235 -0.271 -0.412 
0.019 -0.118 0.358 
-0.298 -0.258 0.021 
-0.078 0.227 0.346 
0.124 -0.289 0.284 
-0.19 -0.345 0.151 
0.302 -0.344 0.067 
-0.04 -0.398 -0.091 
0.202 -0.295 -0.412 
0.31 -0.313 0.017 
-0.221 -0.214 0.115 
0.283 -0.22 -0.142 
0.098 -0.264 0.307 
0.08599999999999999 0.08400000000000001 0.349 
-0.308 -0.276 0.017 
0.204 -0.296 0.082 
-0.23 -0.123 0.115 
0.277 -0.333 0.135 
-0.172 -0.263 -0.312 
-0.241 -0.272 -0.413 
-0.111 -0.083 -0.051 
0.226 -0.317 0.06 
0.298 -0.279 0.018 
-0.198 -0.277 0.1 
0.262 -0.232 -0.327 
0.19 -0.203 -0.239 
-0.216 -0.252 -0.368 
0.242 -0.334 0.114 
-0.065 0.206 0.271 
0.294 -0.28 -0.378 
0.231 -0.211 -0.271 
0.097 0.027 0.185 
-0.056 -0.08 -0.373 
0.16 -0.092 0.237 
0.307 -0.343 0.104 
-0.26 -0.235 -0.337 
0.108 0.145 0.32 
-0.018 -0.246 0.333 
0.245 -0.23 0.035 
0.095 -0.269 0.306 
-0.117 0.257 0.118 
-0.185 -0.091 0.08599999999999999 
0.296 -0.208 -0.218 
0.119 0.24 0.091 
0.256 -0.285 -0.427 
-0.312 -0.223 -0.202 
-0.289 -0.323 -0.247 
0.064 0.239 0.334 
-0.246 -0.231 0.034 
-0.281 -0.188 0.123 
-0.325 -0.267 0.018 
0.076 -0.065 -0.205 
0.28 -0.194 -0.203 
0.167 -0.269 -0.306 
0.095 0.18 0.388 
-0.244 -0.344 -0.327 
0.063 0.278 0.08 
0.008 0.028 0.35 
-0 -0.393 -0.13 
-0.019 -0.118 -0.381 
0.057 0.236 0.383 
0.242 -0.255 0.03 
-0.202 -0.293 0.08400000000000001 
0.102 0.05 0.2 
0.026 -0.044 0.12 
0.037 -0.181 0.336 
-0.276 -0.238 0.024 
0.313 -0.331 0.024 
0.094 -0.328 -0.214 
0.238 -0.302 0.136 
0.053 -0.4 0.11 
-0.281 -0.283 0.021 
0.141 -0.275 -0.232 
0.247 -0.198 -0.139 
-0.188 -0.266 -0.359 
-0.006 -0.387 -0.15 
0.035 -0.209 0.34 
-0.081 -0.127 -0.344 
-0.233 -0.24 -0.353 
-0.098 0.168 0.137 
-0.237 -0.309 -0.448 
0.309 -0.267 -0.332 
0.065 -0.051 -0.276 
0.028 -0.318 0.289 
-0.062 -0.091 -0.362 
0.335 -0.341 0.019 
0.037 -0.2 -0.345 
-0.29 -0.341 0.104 
0.269 -0.24 -0.343 
0.102 -0.125 0.295 
0.064 -0.07199999999999999 0.325 
0.056 -0.111 -0.363 
-0.22 -0.199 -0.24 
0.274 -0.309 -0.142 
-0.17 -0.296 -0.156 
-0.32 -0.276 -0.265 
-0.032 -0.043 0.121 
-0.258 -0.226 -0.31 
0.054 -0.052 -0.236 
-0.259 -0.241 0.179 
-0.224 -0.214 -0.125 
-0.211 -0.268 -0.114 
0.296 -0.312 -0.183 
-0.014 -0.225 0.34 
-0.202 -0.324 -0.414 
-0.041 -0.018 -0.384 
0.028 -0.182 -0.355 
-0.266 -0.233 0.176 
-0.268 -0.228 0.174 
0.308 -0.262 -0.33 
0.101 0.083 0.208 
0.078 0.159 0.414 
0.08 0.032 0.152 
-0.094 -0.091 -0.32 
-0.015 0.091 0.079 
-0.002 -0.386 0.203 
0.168 -0.08699999999999999 0.045 
0.022 -0.119 -0.379 
0.021 -0.155 0.348 
-0.014 -0.013 -0.425 
-0.217 -0.227 0.064 
-0.259 -0.278 0.18 
-0.012 -0.126 -0.377 
0.033 -0.403 0.142 
0.236 -0.233 0.038 
-0.3 -0.232 0.033 
0.097 0.08 0.17 
0.029 -0.195 0.341 
0.008999999999999999 -0.193 0.343 
-0.067 -0.07099999999999999 0.063 
0.08799999999999999 -0.126 -0.338 
-0.247 -0.322 -0.441 
-0.191 -0.28 -0.379 
0.232 -0.197 -0.237 
0.037 -0.043 -0.252 
0.132 0.19 0.127 
-0.267 -0.256 0.097 
-0.203 -0.307 -0.101 
0.008999999999999999 -0.125 0.357 
0.221 -0.344 -0.396 
-0.013 -0.082 -0.061 
0.001 -0.286 -0.293 
0.044 -0.048 -0.24 
-0.079 -0.078 -0.099 
0.001 0.353 0.031 
-0.043 -0.077 0.023 
-0.236 -0.13 0.124 
0.157 -0.225 -0.195 
-0.219 -0.238 -0.115 
0.288 -0.34 0.065 
-0.075 -0.188 -0.332 
0.095 -0.197 0.323 
-0.23 -0.181 -0.164 
0.08799999999999999 0.2 0.09 
0.098 -0.064 0.282 
0.159 -0.256 -0.148 
-0.205 -0.182 -0.169 
-0.08500000000000001 0.143 0.279 
-0.004 -0.388 -0.146 
0.31 -0.303 -0.304 
-0.023 0.264 0.07199999999999999 
0.201 -0.282 0.111 
-0.295 -0.312 -0.368 
-0.008 -0.028 0.055 
0.216 -0.235 0.057 
-0.134 -0.155 -0.288 
-0.044 -0.283 0.312 
0.078 0.002 0.156 
0.124 -0.093 0.262 
-0.211 -0.224 0.101 
0.107 0.19 0.131 
0.113 -0.374 0.192 
0.237 -0.189 -0.146 
0.208 -0.336 -0.402 
0.093 -0.017 0.173 
-0.093 -0.097 0.302 
-0.317 -0.348 0.082 
0.063 0.249 0.076 
-0.248 -0.204 -0.254 
0.302 -0.271 -0.354 
-0.207 -0.233 0.112 
0.096 -0.342 0.253 
0.201 -0.195 -0.15 
0.204 -0.286 0.06900000000000001 
-0.078 0.155 0.098 
0.039 -0.042 -0.264 
0.004 0.315 0.036 
0.234 -0.198 0.209 
0.206 -0.303 0.095 
0.05 -0.157 -0.358 
0.063 -0.398 0.146 
0.202 -0.243 -0.336 
0.297 -0.207 -0.211 
0.253 -0.184 -0.191 
0.214 -0.289 0.051 
-0.321 -0.262 -0.251 
-0.18 -0.253 -0.179 
0.076 0.029 0.148 
-0.028 -0.283 0.315 
0.043 -0.059 -0.397 
0.146 -0.098 0.258 
0.322 -0.274 0.015 
-0.27 -0.337 0.08400000000000001 
-0.245 -0.317 0.043 
-0.149 -0.283 -0.253 
-0.268 -0.254 0.021 
0.026 -0.035 -0.287 
-0.007 0.345 0.073 
-0.286 -0.298 -0.144 
0.112 -0.053 0.158 
-0.011 0.347 0.05 
0.073 -0.254 -0.299 
0.013 -0.076 0.039 
0.125 -0.199 -0.286 
-0.279 -0.287 -0.405 
0.204 -0.283 0.123 
0.065 -0.156 -0.35 
-0.093 -0.081 -0.04 
0.037 -0.153 0.345 
-0.206 -0.253 0.065 
0.07000000000000001 0.058 0.287 
-0.177 -0.222 0.273 
0.222 -0.269 -0.404 
0.056 -0.046 -0.279 
0.149 -0.103 0.261 
-0.255 -0.234 -0.335 
-0.199 -0.29 -0.12 
0.123 0.216 0.14 
0.217 -0.329 0.13 
-0.015 -0.07099999999999999 0.059 
0.04 -0.331 0.277 
0.202 -0.204 -0.167 
-0.07000000000000001 -0.174 -0.341 
0.1 0.097 0.204 
0.166 -0.236 -0.216 
0.01 -0.205 0.342 
0.171 -0.226 -0.145 
0.248 -0.221 -0.298 
0.005 -0.3 0.303 
-0.221 -0.281 0.153 
0.012 0.096 0.08 
-0.225 -0.271 -0.408 
-0.048 -0.169 -0.355 
0.047 -0.037 -0.323 
-0.078 0.03 0.15 
-0.27 -0.271 -0.399 
0.285 -0.326 -0.372 
0.037 0.297 0.095 
0.135 -0.295 -0.225 
-0.111 -0.373 -0.095 
-0.188 -0.313 -0.374 
0.113 0.262 0.139 
0.307 -0.311 0.166 
-0.002 -0.129 -0.374 
0.048 -0.246 0.328 
0.297 -0.285 -0.375 
0.21 -0.239 0.066 
0.222 -0.242 0.224 
-0.203 -0.296 0.106 
-0.215 -0.318 0.11 
0.189 -0.338 0.175 
0.218 -0.341 -0.413 
-0.089 0.189 0.303 
0.052 -0.398 -0.07000000000000001 
0.319 -0.278 -0.186 
0.035 -0.016 -0.359 
0.311 -0.221 -0.206 
0.048 0.008999999999999999 0.13 
0.044 -0.235 0.332 
-0.198 -0.267 0.091 
0.09 -0.06900000000000001 -0.2 
-0.144 -0.078 0.233 
-0.287 -0.277 0.183 
0.256 -0.315 0.037 
-0.252 -0.291 0.176 
0.068 -0.057 -0.308 
-0.258 -0.159 0.109 
-0.248 -0.338 -0.199 
0.08 -0.07000000000000001 0.074 
-0.145 -0.376 0.106 
0.092 -0.066 -0.226 
0.269 -0.271 0.183 
0.099 0.128 0.328 
-0.134 0.189 0.123 
0.282 -0.331 0.038 
0.058 -0.118 0.334 
-0.164 -0.334 -0.103 
0.01 -0.09 0.359 
0.06900000000000001 0.235 0.077 
-0.032 -0.045 -0.411 
-0.045 -0.034 0.126 
-0.242 -0.277 0.03 
-0.229 -0.205 0.216 
0.279 -0.329 -0.267 
0.239 -0.345 -0.326 
0.225 -0.32 0.06900000000000001 
0.274 -0.331 0.139 
-0.167 -0.304 0.246 
0.251 -0.244 -0.362 
0.098 0.107 0.207 
0.099 0.185 0.109 
-0.013 0.027 0.343 
-0.012 -0.317 0.29 
-0.29 -0.277 -0.137 
-0.282 -0.214 -0.257 
0.008999999999999999 -0.016 -0.331 
-0.284 -0.32 -0.173 
0.283 -0.229 -0.136 
0.076 0.131 0.249 
0.054 -0.045 -0.294 
0.228 -0.278 -0.42 
0.005 -0.189 0.342 
-0.047 -0.045 -0.254 
-0.07000000000000001 -0.253 -0.302 
0.179 -0.263 -0.171 
0.002 -0.169 0.344 
0.309 -0.301 -0.33 
-0.229 -0.241 -0.106 
0.091 -0.245 0.316 
-0.09 -0.03 0.164 
-0.223 -0.231 -0.324 
-0.025 -0.06 0.123 
0.037 -0.008999999999999999 0.127 
-0.222 -0.225 0.057 
0.307 -0.304 -0.207 
0.32 -0.254 -0.181 
-0.283 -0.34 0.102 
0.162 -0.277 -0.146 
0.044 -0.401 -0.05 
-0.237 -0.21 -0.111 
-0.067 -0.102 -0.353 
0.065 -0.397 0.158 
0.08500000000000001 -0.097 0.308 
0.036 -0.059 0.105 
-0.204 -0.301 0.096 
-0.037 -0.043 0.122 
0.209 -0.339 -0.381 
-0.26 -0.198 -0.232 
0.011 -0.063 0.082 
-0.292 -0.323 -0.306 
-0.176 -0.261 -0.324 
0.152 -0.291 -0.191 
-0.005 -0.368 0.236 
0.041 -0.041 0.123 
-0.276 -0.247 -0.354 
-0.318 -0.24 0.031 
0.301 -0.21 -0.209 
-0.158 -0.16 0.285 
0.234 -0.225 -0.111 
-0.04 -0.135 -0.365 
0.051 -0.076 -0.381 
-0.231 -0.258 0.164 
0.065 0.218 0.242 
0.109 0.257 0.154 
-0.249 -0.238 -0.349 
-0.08799999999999999 -0.315 -0.233 
0.291 -0.323 0.155 
-0.191 -0.194 -0.165 
0.067 -0.398 0.103 
-0.217 -0.317 0.116 
-0.126 -0.146 0.3 
0.175 -0.262 -0.181 
0.253 -0.293 0.026 
0.049 -0.031 -0.374 
0.099 0.042 0.188 
0.06900000000000001 -0.203 0.332 
-0.237 -0.324 -0.444 
0.006 0.16 0.055 
0.079 -0.063 -0.299 
0.192 -0.279 -0.378 
-0.197 -0.238 -0.158 
0.243 -0.227 -0.317 
0.222 -0.255 0.041 
0.287 -0.332 0.036 
0.007 -0.226 0.339 
-0.315 -0.231 -0.183 
0.223 -0.264 -0.395 
0.239 -0.333 0.12 
0.023 -0.06900000000000001 -0.406 
-0.206 -0.28 -0.402 
0.03 -0.151 0.346 
-0.272 -0.322 0.037 
0.222 -0.22 0.063 
0.021 -0.044 0.12 
-0.171 -0.243 -0.203 
0.282 -0.273 -0.389 
-0.155 -0.075 0.156 
0.093 0.051 0.167 
0.32 -0.243 -0.212 
-0.061 0.206 0.416 
0.001 0.299 0.097 
0.051 -0.208 -0.336 
0.065 -0.053 -0.305 
-0.238 -0.206 -0.259 
0.216 -0.267 0.044 
-0.159 -0.284 -0.185 
-0.209 -0.2 -0.157 
0.32 -0.327 0.019 
-0.016 -0.024 -0.316 
0.312 -0.227 -0.176 
0.26 -0.219 -0.288 
0.001 -0.186 0.34 
0.249 -0.273 -0.415 
0.267 -0.286 -0.12 
-0.3 -0.29 0.017 
-0.219 -0.196 -0.234 
0.176 -0.202 -0.183 
-0.191 -0.309 -0.388 
0.259 -0.336 -0.258 
-0.016 0.332 0.174 
0.128 0.226 0.117 
-0.076 -0.067 -0.314 
0.082 -0.18 -0.331 
0.197 -0.327 -0.383 
-0.022 -0.081 -0.064 
-0.269 -0.229 -0.312 
0.174 -0.32 -0.148 
0.194 -0.259 -0.147 
0.165 -0.122 0.262 
-0.101 -0.372 -0.116 
0.175 -0.218 -0.253 
0.011 -0.016 0.12 
0.211 -0.296 -0.429 
0.25 -0.339 -0.263 
0.058 0.035 0.307 
0.315 -0.294 -0.217 
0.2 -0.285 0.082 
-0.32 -0.271 -0.193 
-0.061 -0.279 0.311 
-0.22 -0.338 -0.278 
-0.102 0.023 0.201 
-0.207 -0.247 -0.132 
0.22 -0.178 -0.147 
0.06900000000000001 0.054 0.29 
0.314 -0.289 -0.188 
0.102 0.196 0.08799999999999999 
-0.23 -0.247 -0.366 
0.07000000000000001 -0.22 0.329 
0.16 -0.247 -0.217 
0.265 -0.315 0.034 
-0.068 -0.056 0.127 
-0.192 -0.35 0.12 
0.285 -0.283 -0.134 
0.1 -0.143 0.305 
0.026 -0.27 -0.305 
-0.31 -0.273 -0.335 
-0.075 -0.357 0.242 
-0.241 -0.348 -0.368 
-0.175 -0.306 -0.137 
-0.171 -0.08799999999999999 0.213 
0.202 -0.252 0.075 
0.278 -0.331 -0.378 
0.01 -0.291 0.31 
-0.191 -0.265 -0.147 
0.052 -0.219 0.335 
0.064 -0.389 0.19 
-0.292 -0.337 0.043 
0.3 -0.318 0.161 
0.327 -0.323 0.014 
0.003 -0.174 0.343 
0.016 0.205 0.022 
-0.042 0.079 0.099 
-0.298 -0.302 0.019 
0.049 -0.031 -0.368 
0.131 -0.379 0.132 
0.137 -0.133 0.289 
0.178 -0.212 -0.209 
0.301 -0.302 -0.169 
0.004 0.027 0.336 
0.257 -0.338 -0.281 
0.227 -0.262 0.035 
0.19 -0.256 -0.157 
-0.174 -0.305 -0.325 
0.065 -0.256 0.321 
-0.221 -0.233 -0.328 
-0.278 -0.279 0.022 
0.296 -0.312 0.166 
-0.31 -0.22 -0.2 
0.027 -0.401 0.17 
0.233 -0.184 0.208 
0.217 -0.339 -0.3 
0.286 -0.229 -0.294 
-0.261 -0.303 -0.435 
0.266 -0.265 0.021 
0.067 0.293 0.08500000000000001 
-0.276 -0.327 -0.398 
-0.324 -0.26 -0.217 
-0.199 -0.282 0.101 
0.286 -0.341 0.083 
0.051 -0.065 -0.385 
0.037 -0.339 0.27 
-0.133 0.212 0.116 
-0.28 -0.329 -0.276 
-0.019 -0.038 0.12 
-0.169 -0.305 -0.285 
-0.251 -0.286 -0.43 
0.21 -0.302 0.123 
0.364 -0.322 -0.004 
-0.262 -0.168 0.133 
0.181 -0.226 -0.133 
0.308 -0.217 -0.209 
0.115 -0.276 0.295 
0.238 -0.347 -0.384 
0.211 -0.244 0.058 
0.022 -0.045 -0.235 
0.027 -0.161 -0.365 
-0.254 -0.334 -0.427 
0.288 -0.225 -0.279 
-0.117 0.255 0.128 
0.061 -0.041 0.136 
0.171 -0.313 -0.215 
0.321 -0.282 -0.226 
0.068 -0.089 -0.351 
-0.075 -0.29 -0.269 
0.007 -0.383 -0.159 
0.099 -0.371 -0.124 
-0.275 -0.312 -0.413 
-0.244 -0.286 0.006 
0.098 0.2 0.08599999999999999 
0.096 -0.135 0.303 
-0.304 -0.239 -0.154 
0.052 -0.036 -0.372 
0.235 -0.281 0.034 
0.212 -0.302 -0.435 
0.269 -0.254 0.021 
0.048 -0.397 0.172 
0.226 -0.205 -0.255 
0.302 -0.311 -0.215 
-0.122 0.231 0.138 
0.194 -0.284 -0.114 
-0.313 -0.224 -0.191 
0.285 -0.33 -0.335 
-0.194 -0.276 -0.132 
-0.131 -0.271 -0.251 
-0.04 0.034 0.341 
0.24 -0.331 0.08400000000000001 
0.013 0.095 0.022 
-0.298 -0.222 -0.256 
0.29 -0.324 -0.316 
0.053 -0.208 0.336 
0.248 -0.146 0.117 
0.118 -0.373 0.189 
0.102 0.146 0.374 
0.223 -0.26 0.039 
0.152 -0.365 -0.029 
0.089 -0.313 0.282 
0.049 0.307 0.19 
0.219 -0.235 -0.116 
0.08699999999999999 0.213 0.378 
0.074 -0.203 -0.326 
-0.053 0.25 0.351 
0.01 -0.381 -0.164 
-0.083 -0.152 -0.338 
0.063 -0.205 0.333 
0.21 -0.336 -0.287 
0.271 -0.328 0.042 
0.045 -0.061 -0.393 
-0.273 -0.318 -0.415 
0.104 -0.373 0.201 
-0.213 -0.314 0.08599999999999999 
0.134 0.21 0.118 
-0.32 -0.283 -0.24 
-0.243 -0.347 -0.358 
0.289 -0.266 0.021 
0.261 -0.193 0.073 
0.177 -0.314 -0.296 
-0.229 -0.263 -0.397 
0.146 -0.254 -0.221 
-0.202 -0.288 -0.406 
0.136 -0.119 0.281 
0.315 -0.235 -0.238 
0.099 -0.021 0.181 
-0.059 -0.105 -0.362 
0.07000000000000001 -0.105 -0.348 
0.05 -0.063 -0.196 
-0.135 -0.082 0.027 
0.178 -0.202 -0.23 
0.277 -0.237 -0.329 
0.026 -0.261 -0.311 
0.2 -0.258 0.083 
-0.111 0.184 0.125 
-0.08699999999999999 -0.077 0.037 
0.147 -0.282 -0.251 
-0.202 -0.118 0.202 
0.19 -0.252 -0.339 
0.102 -0.12 0.296 
0.07199999999999999 -0.208 0.331 
0.056 -0.165 -0.352 
0.219 -0.299 -0.437 
0.181 -0.262 -0.338 
0.028 -0.007 0.123 
0.254 -0.32 -0.436 
-0.255 -0.195 0.073 
0.171 -0.206 -0.221 
0.181 -0.132 0.252 
0.169 -0.121 0.257 
0.162 -0.287 -0.15 
0.219 -0.213 0.102 
0.066 -0.076 -0.124 
0.213 -0.306 0.124 
0.226 -0.198 -0.239 
-0.155 -0.08 0.083 
0.291 -0.303 -0.154 
-0.204 -0.257 -0.368 
0.123 0.227 0.138 
-0.116 -0.386 0.014 
0.046 -0.078 -0.093 
-0.306 -0.303 -0.2 
0.027 0.05 0.381 
0.058 -0.323 0.281 
-0.23 -0.216 0.058 
-0.232 -0.261 -0.394 
0.223 -0.177 -0.177 
-0.138 -0.273 0.285 
0.419 -0.268 0.047 
0.121 0.237 0.096 
0.25 -0.26 -0.393 
0.092 -0.304 0.287 
-0.108 0.278 0.13 
-0.281 -0.309 -0.403 
-0.258 -0.333 0.068 
0.052 -0.078 -0.091 
0.033 -0.245 0.331 
0.04 -0.136 -0.366 
0.291 -0.236 -0.138 
-0.323 -0.26 -0.234 
0.064 -0.075 -0.359 
0.212 -0.239 0.061 
-0.286 -0.322 -0.205 
0.223 -0.313 0.058 
0.011 -0.404 0.121 
0.105 -0.07199999999999999 -0.267 
-0.319 -0.262 -0.182 
0.132 0.214 0.114 
-0.114 -0.156 0.308 
-0.251 -0.322 -0.141 
0.252 -0.187 -0.208 
-0.2 -0.27 0.112 
0.328 -0.309 0.011 
-0.251 -0.34 -0.415 
-0.238 -0.237 0.036 
0.315 -0.28 -0.32 
0.162 -0.125 0.268 
-0.212 -0.23 0.125 
0.319 -0.249 -0.185 
0.099 0.099 0.212 
0.079 -0.166 -0.337 
0.345 -0.252 0.028 
0.264 -0.195 -0.151 
-0.108 0.152 0.328 
0.162 -0.37 0.067 
0.164 -0.25 -0.275 
0.07099999999999999 0.289 0.082 
0.245 -0.2 0.06900000000000001 
0.192 -0.264 -0.147 
-0.274 -0.251 -0.365 
0.052 -0.081 -0.063 
-0.275 -0.333 0.048 
0.338 -0.351 0.091 
-0.22 -0.178 -0.184 
0.267 -0.19 0.077 
-0.248 -0.243 -0.36 
0.231 -0.179 0.21 
0.057 -0.101 0.335 
0.235 -0.259 -0.392 
-0.233 -0.21 0.064 
-0.016 -0.02 0.346 
-0.214 -0.278 -0.41 
-0.209 -0.238 0.068 
-0.267 -0.234 -0.329 
0.093 -0.155 0.314 
0.101 -0.293 0.292 
-0.152 -0.365 0.161 
0.149 -0.264 -0.221 
-0.308 -0.271 -0.34 
0.007 -0.404 0.096 
0.256 -0.198 0.064 
-0.005 0.027 0.338 
0.274 -0.336 -0.363 
-0.153 -0.247 -0.228 
-0.317 -0.253 0.024 
0.251 -0.316 0.158 
-0.19 -0.191 -0.177 
0.163 -0.307 -0.217 
0.317 -0.342 0.034 
0.27 -0.228 -0.311 
0.003 -0.403 0.078 
-0.188 -0.205 -0.195 
0.319 -0.238 -0.214 
0.06900000000000001 -0.078 0.017 
-0.205 -0.334 -0.284 
-0.303 -0.245 0.026 
-0.248 -0.263 0.027 
-0.216 -0.331 -0.433 
0.286 -0.227 -0.288 
0.065 -0.077 -0.119 
0.247 -0.196 0.078 
0.311 -0.271 -0.33 
-0.219 -0.344 -0.37 
0.018 -0.036 -0.269 
0.003 -0.106 -0.388 
-0.177 -0.273 -0.34 
-0.316 -0.23 -0.207 
0.214 -0.317 -0.437 
-0.007 0.248 0.063 
-0.259 -0.245 0.026 
0.226 -0.33 -0.44 
0.205 -0.318 -0.132 
-0.186 -0.098 -0.03 
-0.485 -0.369 0.035 
0.178 -0.257 -0.324 
-0.249 -0.333 0.08 
-0.057 -0.047 -0.299 
-0.128 -0.119 -0.291 
0.145 -0.292 -0.2 
0.019 -0.016 0.345 
-0.028 -0.179 0.337 
-0.233 -0.333 0.103 
0.121 -0.101 0.271 
0.064 -0.05 -0.254 
0.227 -0.308 0.049 
0.083 0.092 0.311 
0.28 -0.213 -0.255 
0.129 0.222 0.127 
-0.026 -0.06 0.094 
0.037 -0.141 -0.366 
-0.024 0.212 0.429 
0.101 0.202 0.167 
0.245 -0.338 -0.211 
0.013 -0.352 0.257 
0.215 -0.207 -0.258 
0.145 -0.082 0.238 
0.12 0.248 0.128 
-0.254 -0.336 -0.196 
0.198 -0.271 0.097 
0.074 -0.185 0.33 
0.146 -0.123 0.278 
-0.09 -0.081 -0.035 
0.215 -0.244 0.052 
0.117 -0.371 0.195 
-0.216 -0.198 -0.148 
-0.318 -0.253 -0.265 
-0.219 -0.259 -0.384 
-0.256 -0.271 0.135 
0.198 -0.327 -0.037 
0.2 -0.238 -0.32 
0.1 -0.187 0.321 
-0.253 -0.32 -0.437 
0.258 -0.254 -0.381 
0.019 0.28 0.08 
-0.199 -0.261 0.105 
-0.07099999999999999 -0.064 -0.323 
-0.04 -0.016 -0.389 
0.212 -0.255 0.052 
0.266 -0.187 0.011 
0.101 0.082 0.196 
0.065 -0.155 0.328 
-0.294 -0.298 0.02 
-0.239 -0.269 0.031 
-0.203 -0.283 0.07099999999999999 
0.193 -0.236 -0.121 
-0.188 -0.247 -0.327 
-0.198 -0.212 -0.26 
0.079 -0.28 0.306 
0.111 0.247 0.152 
0.233 -0.326 0.06900000000000001 
0.29 -0.341 0.097 
-0.298 -0.314 -0.351 
0.216 -0.131 -0.08400000000000001 
0.284 -0.287 -0.398 
-0.214 -0.282 -0.415 
0.142 -0.132 0.286 
0.299 -0.252 -0.335 
0.167 -0.138 0.27 
0.223 -0.217 -0.124 
0.2 -0.267 0.075 
0.25 -0.198 0.067 
0.101 -0.147 0.308 
0.08400000000000001 -0.315 0.281 
0.06 -0.055 -0.359 
0.017 -0.054 -0.216 
-0.022 -0.261 0.327 
-0.08699999999999999 -0.395 0.003 
-0.249 -0.216 -0.283 
0.092 -0.134 -0.334 
-0.323 -0.266 -0.219 
0.238 -0.317 -0.132 
-0.216 -0.337 -0.283 
-0.043 0.232 0.402 
0.053 -0.401 0.083 
0.106 -0.158 -0.318 
-0.205 -0.237 0.082 
-0.058 0.304 0.185 
-0.013 0.214 0.43 
-0.249 -0.226 -0.315 
0.057 -0.187 -0.343 
-0.188 -0.353 0.039 
-0.06900000000000001 -0.066 -0.334 
0.23 -0.34 -0.282 
0.237 -0.296 0.036 
0.308 -0.33 0.026 
-0.319 -0.254 -0.171 
-0.013 0.191 0.028 
-0.108 -0.018 0.228 
0.309 -0.299 -0.193 
-0.234 -0.222 0.047 
-0.016 0.033 0.363 
0.298 -0.343 0.07199999999999999 
0.046 -0.041 -0.3 
-0.319 -0.288 -0.219 
0.224 -0.244 0.041 
0.175 -0.31 -0.304 
-0.223 -0.209 0.08500000000000001 
0.06 0.142 0.432 
0.244 -0.219 0.043 
-0.188 -0.32 -0.08 
0.201 -0.212 -0.163 
0.215 -0.256 0.047 
0.132 -0.282 0.284 
-0.304 -0.277 -0.152 
0.291 -0.23 -0.288 
0.076 0.173 0.418 
0.068 -0.306 -0.256 
0.02 -0.404 -0.054 
-0.211 -0.259 -0.118 
-0.32 -0.246 -0.235 
-0.288 -0.242 0.027 
0.322 -0.267 -0.242 
-0.372 -0.365 0.074 
0.279 -0.262 -0.127 
0.103 0.05 0.212 
0.25 -0.243 0.03 
-0.244 -0.329 0.06 
-0.311 -0.285 -0.336 
0.122 -0.108 0.278 
0.08 -0.039 0.153 
-0.235 -0.229 -0.323 
-0.201 -0.263 0.073 
-0.323 -0.258 -0.206 
0 -0.004 -0.356 
0.192 -0.244 -0.326 
0.197 -0.266 -0.372 
0.199 -0.12 -0.108 
0.023 -0.138 -0.369 
0.039 -0.254 0.327 
0.159 -0.285 -0.184 
-0.279 -0.235 -0.321 
0.098 -0.314 0.278 
-0.049 -0.043 -0.283 
0.232 -0.288 -0.434 
-0.21 -0.304 0.07199999999999999 
0.082 -0.012 0.159 
-0.05 -0.266 0.32 
0.303 -0.308 -0.205 
0.044 -0.145 0.342 
-0.012 -0.06900000000000001 0.06900000000000001 
-0.095 -0.007 0.178 
-0.271 -0.239 -0.121 
-0.219 -0.337 -0.272 
-0.147 -0.346 0.215 
-0.017 0.1 0.062 
0.291 -0.323 -0.311 
-0.278 -0.337 0.12 
-0.126 0.191 0.097 
-0.287 -0.232 -0.137 
0.244 -0.232 -0.111 
0.229 -0.316 0.128 
-0.205 -0.311 -0.054 
-0.232 -0.193 -0.228 
0.037 -0.094 -0.386 
0.266 -0.189 -0.174 
0.052 -0.152 -0.359 
0.001 0.238 -0.006 
0.091 -0.35 0.246 
-0.321 -0.247 -0.229 
0.082 -0.388 0.178 
-0.08599999999999999 -0.388 0.176 
-0.198 -0.271 0.1 
0.281 -0.315 -0.156 
-0.212 -0.335 -0.232 
0.063 -0.099 -0.359 
-0.224 -0.321 0.074 
-0.228 -0.312 0.052 
0.377 -0.336 -0.007 
-0.002 -0.245 0.332 
0.005 -0.299 -0.282 
0.065 -0.377 0.216 
0.203 -0.286 0.118 
-0.02 0.024 0.116 
0.273 -0.226 -0.3 
-0.018 0.216 0.428 
-0.32 -0.346 0.038 
0.023 -0.049 0.12 
-0.008 -0.374 -0.179 
0.07000000000000001 0.269 0.076 
0.157 -0.234 0.287 
-0.275 -0.282 -0.405 
-0.211 -0.21 -0.145 
-0.218 -0.279 -0.106 
0.131 0.199 0.131 
-0.018 0.267 0.07199999999999999 
-0.316 -0.342 0.035 
0.269 -0.291 0.024 
0.07199999999999999 -0.358 0.243 
0.07199999999999999 -0.381 0.205 
-0.219 -0.305 -0.441 
0.02 -0.404 0.098 
0.319 -0.277 -0.285 
-0.175 -0.296 -0.342 
-0.206 -0.343 0.06 
-0.245 -0.328 -0.44 
0.215 -0.167 -0.147 
-0.317 -0.292 -0.227 
0.062 0.279 0.212 
-0.017 -0.336 0.274 
0.018 -0.382 -0.159 
-0.052 0.112 0.432 
0.104 -0.081 -0.08 
0.15 -0.304 -0.211 
0.204 -0.286 -0.406 
0.033 -0.403 0.082 
0.12 -0.068 0.23 
-0.301 -0.303 -0.171 
0.046 -0.347 0.261 
-0.166 -0.242 -0.141 
0.094 0.07099999999999999 0.166 
-0.201 -0.285 0.079 
0.053 -0.098 0.338 
-0.143 -0.268 -0.237 
0.251 -0.229 -0.323 
0.101 -0.048 0.181 
0.08599999999999999 -0.301 0.291 
-0.001 -0.327 -0.249 
0.064 0.053 0.312 
-0.139 -0.077 0.235 
-0.202 -0.238 -0.325 
-0.043 -0.052 0.125 
0.236 -0.271 -0.109 
-0.083 -0.073 0.057 
0.099 0.14 0.382 
0.234 -0.256 -0.096 
0.101 -0.015 0.189 
-0.008999999999999999 -0.243 0.333 
0.169 -0.258 0.27 
0.296 -0.216 -0.244 
-0.208 -0.335 0.138 
0.212 -0.333 -0.423 
0.143 -0.267 -0.24 
0.315 -0.28 -0.176 
0.258 -0.228 -0.117 
-0.165 -0.098 -0.133 
0.025 -0.026 0.122 
0.059 -0.246 0.326 
0.078 0.163 0.097 
-0.013 0.338 0.068 
0.036 -0.402 0.152 
-0.155 -0.08699999999999999 0.234 
0.173 -0.316 -0.144 
0.268 -0.265 -0.118 
-0.025 0.106 0.077 
0.262 -0.186 0.151 
0.098 0.187 0.121 
-0.076 -0.07099999999999999 -0.167 
0.296 -0.29 -0.378 
0.116 0.199 0.139 
0.239 -0.239 -0.081 
0.083 0.202 0.091 
0.042 -0.038 -0.303 
0.23 -0.141 0.174 
0.092 -0.151 0.312 
0.199 -0.259 0.098 
0.229 -0.275 -0.416 
0.138 -0.13 -0.281 
0.111 0.192 0.134 
0.004 -0.043 0.122 
0.136 -0.15 0.297 
0.008 -0.404 0.138 
0.276 -0.265 -0.385 
-0.222 -0.277 -0.107 
-0.116 -0.257 0.302 
0.288 -0.325 -0.356 
0.002 0.29 0.08699999999999999 
0.128 0.183 0.121 
0.227 -0.196 -0.234 
0.216 -0.337 0.081 
-0.237 -0.341 -0.423 
-0.162 -0.3 -0.167 
0.166 -0.308 -0.237 
0.298 -0.298 -0.159 
0.079 -0.385 0.191 
0.1 0.104 0.195 
-0.073 -0.388 -0.101 
0.235 -0.247 -0.077 
0.1 -0.129 0.298 
0.208 -0.268 0.056 
0.23 -0.188 -0.141 
-0.163 -0.292 -0.293 
0.008999999999999999 -0.404 0.132 
0.064 0.169 0.425 
-0.247 -0.324 0.051 
0.13 -0.265 -0.255 
-0.033 -0.056 -0.216 
0.027 -0.345 0.265 
-0.008999999999999999 0.003 0.041 
0.256 -0.24 0.029 
0.017 0.005 0.08599999999999999 
-0.195 -0.272 -0.134 
0.102 0.026 0.202 
-0.134 -0.31 -0.203 
0.287 -0.296 -0.395 
0.03 -0.04 0.121 
0.032 0.043 0.366 
0.245 -0.25 0.029 
0.027 0.269 0.075 
-0.185 -0.26 -0.345 
0.133 -0.302 0.271 
0.312 -0.305 0.17 
-0.143 -0.34 -0.127 
0.104 0.185 0.1 
0.063 0.165 0.428 
0.3 -0.306 -0.361 
0.231 -0.25 -0.373 
0.24 -0.231 -0.11 
-0.137 -0.302 -0.21 
0.305 -0.31 -0.226 
-0.261 -0.261 0.028 
-0.112 -0.082 -0.07199999999999999 
-0.102 -0.312 -0.228 
0.209 -0.207 -0.131 
-0.26 -0.297 -0.433 
-0.03 -0.334 0.275 
0.226 -0.239 -0.347 
0.253 -0.256 -0.01 
0.225 -0.183 -0.149 
0.055 0.004 0.135 
-0.246 -0.185 -0.163 
0.206 -0.271 0.133 
0.167 -0.28 -0.316 
-0.327 -0.251 0.026 
0.28 -0.223 -0.137 
0.181 -0.308 -0.352 
-0.082 0.103 0.281 
-0.234 -0.326 0.066 
-0.239 -0.284 -0.111 
-0.198 -0.33 -0.372 
0.143 -0.127 0.283 
-0.07199999999999999 0.169 0.42 
0.335 -0.354 0.073 
0.195 -0.206 -0.246 
-0.079 0.28 0.191 
-0.283 -0.317 -0.395 
0.239 -0.237 -0.076 
0.114 -0.132 0.296 
0.223 -0.332 -0.436 
0.151 -0.262 -0.264 
0.204 -0.282 -0.402 
0.014 -0.314 0.293 
0.253 -0.304 -0.124 
-0.166 -0.243 -0.211 
0.211 -0.312 -0.436 
-0.196 -0.331 -0.316 
0.206 -0.269 0.06 
0.197 -0.204 -0.176 
-0.187 -0.28 -0.14 
0.189 -0.167 0.258 
-0.08500000000000001 -0.08 -0.08 
-0.254 -0.191 0.091 
0.083 0.093 0.255 
-0.209 -0.229 0.08500000000000001 
0.23 -0.312 0.051 
0.001 -0.025 0.347 
0.189 -0.213 -0.137 
0.297 -0.242 -0.311 
-0.163 -0.298 -0.277 
0.46 -0.301 0.053 
0.016 -0.03 -0.297 
0.012 -0.037 -0.262 
0.306 -0.235 -0.159 
0.002 -0.036 -0.264 
0.21 -0.229 -0.137 
0.112 0.271 0.117 
0.036 -0.384 -0.148 
-0.261 -0.187 -0.174 
-0.273 -0.276 -0.402 
0.304 -0.249 -0.315 
-0.255 -0.19 -0.036 
-0.164 -0.35 0.188 
-0.01 0.061 0.047 
0.19 -0.323 -0.357 
0.037 -0.387 0.205 
0.114 -0.06 0.136 
-0.011 0.313 0.152 
-0.028 -0.077 -0.108 
-0.21 -0.33 -0.424 
0.321 -0.246 -0.202 
-0.005 -0.08 -0.094 
-0.044 -0.073 -0.141 
0.07000000000000001 -0.062 -0.317 
0.157 -0.258 -0.214 
0.067 0.219 0.082 
-0.08400000000000001 -0.037 0.157 
-0.186 -0.223 -0.132 
0.205 -0.33 -0.175 
-0.239 -0.318 0.049 
0.002 0.28 0.079 
-0.286 -0.261 -0.368 
0.302 -0.307 -0.35 
-0.146 -0.292 -0.2 
0.07199999999999999 -0.398 0.09 
0.148 -0.287 -0.247 
-0.015 0.079 0.026 
0.08500000000000001 -0.395 0.112 
0.203 -0.206 -0.163 
-0.216 -0.286 -0.423 
0.227 -0.216 0.061 
-0.319 -0.27 -0.187 
0.153 -0.266 -0.267 
0.206 -0.332 -0.406 
0.223 -0.197 -0.13 
0.315 -0.229 -0.215 
-0.094 -0.059 0.123 
-0.207 -0.301 0.074 
0.04 -0.149 0.343 
-0.217 -0.215 0.104 
0.14 -0.284 -0.223 
0.094 -0.388 0.165 
0.258 -0.192 0.078 
0.305 -0.3 -0.179 
0.304 -0.311 -0.32 
-0.287 -0.259 0.022 
0.005 -0.116 0.359 
0.091 0.033 0.169 
0.191 -0.341 -0.013 
-0.123 0.195 0.094 
0.216 -0.335 -0.426 
0.2 -0.282 0.106 
-0.005 -0.025 -0.308 
0.217 -0.25 -0.113 
0.06900000000000001 -0.061 0.317 
-0.285 -0.293 -0.139 
-0.033 0.038 0.115 
0.038 -0.271 0.32 
0.001 -0.146 0.349 
-0.392 -0.305 0.139 
-0.127 0.183 0.122 
-0.26 -0.336 -0.414 
-0.099 -0.048 0.178 
0.197 -0.311 -0.124 
0.185 -0.216 -0.194 
-0.033 -0.24 0.332 
-0.077 -0.014 0.155 
0.108 -0.032 0.194 
0.265 -0.221 0.036 
0.057 -0.22 -0.327 
0.254 -0.207 0.05 
0.268 -0.336 -0.297 
-0.211 -0.227 0.081 
0.092 -0.104 0.305 
0.013 -0.078 -0.102 
-0.06 0.063 0.35 
0.229 -0.183 -0.152 
0.236 -0.348 -0.371 
-0.22 -0.251 0.043 
0.262 -0.196 0.064 
-0.104 0.146 0.37 
-0.311 -0.345 0.096 
0.178 -0.26 -0.176 
-0.158 -0.223 -0.184 
0.22 -0.336 -0.184 
0.249 -0.251 -0.111 
-0.24 -0.339 -0.428 
-0.034 -0.238 -0.324 
-0.154 -0.077 0.221 
0.054 -0.042 -0.343 
-0.189 -0.257 -0.159 
0.107 -0.109 0.289 
-0.32 -0.315 0.014 
0.126 0.231 0.127 
0.125 -0.365 0.2 
0.017 -0.026 -0.312 
0.312 -0.294 -0.19 
0.298 -0.241 -0.146 
0.043 -0.402 -0.044 
0.182 -0.09 0.168 
0.229 -0.204 0.093 
-0.025 -0.39 -0.139 
-0.068 -0.379 -0.138 
0.027 -0.174 0.341 
0.161 -0.302 -0.252 
0.263 -0.309 -0.134 
-0.18 -0.308 -0.35 
0.023 -0.212 0.342 
-0.021 -0.067 0.074 
0.045 -0.139 0.342 
-0.263 -0.187 -0.179 
0.035 0.148 0.444 
0.188 -0.252 -0.165 
0.215 -0.231 -0.316 
-0.036 -0.011 0.126 
-0.219 -0.228 0.059 
0.243 -0.304 0.08699999999999999 
0.067 -0.054 -0.245 
-0.22 -0.319 0.077 
0.189 -0.354 0.048 
0.199 -0.283 0.096 
0.063 -0.345 0.26 
0.256 -0.21 0.046 
-0.315 -0.346 0.092 
-0.218 -0.223 0.067 
0.216 -0.325 0.013 
-0.279 -0.224 -0.136 
0.101 0.017 0.244 
0.254 -0.291 -0.433 
0.121 0.21 0.089 
0.196 -0.293 -0.4 
0.221 -0.293 -0.112 
-0.033 0.036 0.355 
-0.29 -0.322 0.027 
-0.1 0.099 0.19 
0.13 -0.377 0.154 
-0.297 -0.242 -0.144 
-0.065 0.002 0.143 
0.09 -0.03 0.164 
0.172 -0.209 -0.167 
-0.191 -0.333 0.182 
0.021 -0.139 0.351 
0.246 -0.266 -0.112 
-0.211 -0.312 0.09 
-0.271 -0.197 -0.157 
-0.076 0.224 0.225 
-0.269 -0.245 0.097 
-0.026 -0.318 0.29 
-0.226 -0.278 0.037 
0.111 -0.192 0.316 
0.195 -0.237 -0.311 
0.31 -0.233 -0.255 
0.247 -0.322 -0.14 
0.016 -0.157 -0.367 
0.067 -0.129 0.328 
-0.232 -0.347 -0.387 
-0.04 -0.366 0.24 
-0.307 -0.23 -0.256 
0.279 -0.196 0.056 
-0.299 -0.252 -0.144 
-0.158 -0.232 -0.233 
0.121 0.202 0.139 
0.083 0.122 0.276 
-0.215 -0.255 -0.113 
0.203 -0.22 -0.124 
0.062 -0.145 0.333 
0.02 -0.296 0.306 
0.099 0.146 0.156 
0.259 -0.195 -0.149 
-0.007 -0.332 0.276 
0.063 -0.049 -0.27 
-0.027 -0.08 -0.399 
-0.214 -0.233 -0.126 
0.272 -0.201 -0.153 
-0.103 0.193 0.136 
-0.063 -0.399 0.062 
0.027 0.294 0.092 
-0.307 -0.304 -0.206 
0.031 -0.082 -0.395 
0.01 0.356 0.138 
0.288 -0.264 -0.134 
0.092 -0.127 0.308 
0.089 -0.138 -0.336 
0.216 -0.217 0.089 
-0.184 -0.32 -0.332 
0.245 -0.334 0.093 
0.031 0.068 0.1 
0.109 0.183 0.121 
-0.004 0.284 0.081 
-0.203 -0.267 0.124 
0.291 -0.248 -0.338 
0.073 -0.282 0.306 
-0.162 -0.279 -0.186 
-0.308 -0.303 -0.326 
0.129 0.181 0.11 
0.254 -0.324 0.047 
0.31 -0.238 -0.164 
0.258 -0.221 -0.294 
0.118 -0.063 0.239 
0.099 -0.124 0.3 
0.189 -0.258 -0.353 
-0.146 -0.348 -0.104 
0.035 -0.287 0.311 
0.078 0.216 0.082 
-0.021 -0.034 -0.287 
0.012 -0.031 0.119 
0.08 0.263 0.073 
0.122 -0.08500000000000001 0.253 
0.293 -0.291 -0.148 
-0.296 -0.241 -0.313 
0.019 -0.386 -0.15 
-0.07199999999999999 -0.074 -0.337 
-0.161 -0.078 0.212 
0.058 -0.053 -0.239 
-0.125 -0.253 -0.263 
-0.064 0.188 0.077 
-0.191 -0.101 -0.032 
-0.101 0.011 0.197 
-0.155 -0.297 -0.181 
0.221 -0.236 0.05 
0.002 -0.076 0.049 
0.003 -0.381 -0.161 
0.044 -0.108 0.345 
-0.214 -0.287 0.05 
-0.2 -0.277 -0.11 
0.271 -0.331 -0.202 
0.118 -0.066 0.243 
0.22 -0.21 -0.133 
-0.134 -0.114 0.279 
0.299 -0.314 -0.345 
0.263 -0.292 0.026 
0.096 0.068 0.17 
-0.121 -0.18 -0.298 
0.175 -0.201 -0.205 
0.08599999999999999 -0.041 0.29 
-0.21 -0.279 -0.406 
0.281 -0.332 -0.349 
-0.041 -0.07099999999999999 0.059 
0.318 -0.276 -0.18 
-0.034 -0.281 0.315 
0.229 -0.344 -0.411 
0.172 -0.311 -0.268 
-0.203 -0.217 -0.159 
0.039 0.237 0.399 
-0.165 -0.199 -0.249 
-0.002 0.017 0.333 
0.232 -0.242 0.037 
-0.409 -0.27 0.031 
0.187 -0.14 0.249 
0.093 -0.375 0.206 
-0.265 -0.339 -0.386 
0.04 -0.374 -0.171 
-0.08699999999999999 0.035 0.161 
0.24 -0.202 0.07099999999999999 
-0.27 -0.239 0.106 
0.206 -0.197 -0.233 
-0.158 -0.096 -0.142 
-0.255 -0.148 0.075 
-0.015 -0.006 -0.358 
0.198 -0.231 0.254 
0.064 -0.398 -0.049 
0.191 -0.287 -0.117 
0.038 -0.232 0.334 
-0.303 -0.271 -0.353 
-0.15 -0.241 -0.18 
0.06900000000000001 0.258 0.075 
0.153 -0.233 -0.18 
0.206 -0.305 -0.428 
0.125 -0.249 -0.265 
0.028 -0.403 0.142 
0.133 -0.159 0.301 
0.005 -0.004 -0.358 
-0.243 -0.208 -0.263 
-0.007 -0.017 -0.329 
0.025 -0.309 0.296 
-0.059 -0.041 0.134 
0.184 -0.32 -0.302 
0.01 0.345 0.068 
0.217 -0.266 -0.395 
0.058 -0.239 -0.315 
0.165 -0.266 -0.293 
0.103 0.201 0.156 
0.078 -0.056 0.122 
0.063 -0.385 0.2 
-0.243 -0.227 -0.317 
0.294 -0.321 -0.32 
0.184 -0.193 0.267 
0.288 -0.199 -0.19 
0.322 -0.249 -0.22 
0.22 -0.269 0.041 
-0.269 -0.206 -0.142 
0.196 -0.229 -0.294 
-0.31 -0.231 -0.251 
0.029 0.003 0.123 
0.182 -0.219 -0.138 
0.306 -0.218 -0.226 
-0.318 -0.275 -0.178 
-0.229 -0.273 -0.412 
-0.226 -0.319 -0.133 
-0.248 -0.227 0.036 
-0.172 -0.26 -0.307 
0.06900000000000001 -0.052 -0.256 
0.105 0.236 0.075 
0.033 -0.392 0.195 
-0.153 -0.07199999999999999 0.211 
0.21 -0.226 -0.301 
0.032 -0.145 0.347 
-0.047 -0.047 -0.394 
0.082 0.029 0.156 
-0.265 -0.324 -0.423 
0.068 0.158 0.424 
-0.119 0.251 0.131 
0.005 -0.057 -0.208 
-0.202 -0.244 0.08799999999999999 
0.028 -0.268 0.323 
-0.089 -0.07199999999999999 0.065 
0.032 -0.403 0.162 
0.27 -0.339 -0.343 
-0.091 0.022 0.171 
-0.07099999999999999 0.278 0.077 
0.318 -0.268 -0.291 
0.097 0.271 0.076 
0.131 -0.382 0.08699999999999999 
-0.06900000000000001 -0.079 -0.08400000000000001 
0.141 -0.283 -0.22 
0.065 -0.349 0.256 
0.044 -0.128 0.343 
0.323 -0.256 -0.229 
0.065 -0.07000000000000001 -0.356 
0.153 -0.271 -0.161 
0.043 -0.327 0.28 
-0.158 -0.235 -0.158 
-0.212 -0.265 0.05 
0.239 -0.229 -0.323 
0.056 -0.319 0.285 
0.296 -0.318 -0.245 
-0.221 -0.201 -0.246 
0.212 -0.234 0.065 
0.055 0.268 0.078 
0.029 -0.266 -0.307 
0.096 0.04 0.179 
-0.096 0.265 0.175 
-0.139 -0.065 0.206 
-0.101 0.035 0.238 
-0.319 -0.244 0.028 
0.251 -0.237 -0.344 
0.283 -0.329 -0.301 
0.02 -0.375 0.231 
-0.043 -0.079 -0.023 
0.102 -0.176 0.318 
0.01 -0.148 0.35 
0.128 -0.303 0.274 
-0.002 -0.329 0.278 
-0.299 -0.242 -0.308 
-0.291 -0.249 -0.341 
0.106 0.15 0.312 
0.236 -0.198 -0.111 
-0.21 -0.226 0.095 
0.24 -0.221 0.044 
0.233 -0.296 0.039 
-0.121 0.179 0.109 
-0.238 -0.223 0.044 
-0.037 0.036 0.351 
-0.07199999999999999 -0.077 0.031 
-0.107 -0.07199999999999999 -0.236 
0.225 -0.337 -0.193 
0.092 -0.264 0.309 
0.001 -0.007 0.342 
0.108 -0.387 0.128 
0.29 -0.228 -0.143 
0.23 -0.303 -0.12 
0.101 0.012 0.246 
0.116 -0.31 0.274 
0.047 0.229 0.28 
-0.015 -0.266 0.325 
0.065 0.137 0.09 
0.08400000000000001 -0.292 0.297 
0.037 0.073 0.419 
0.052 -0.044 -0.3 
0.16 -0.107 0.255 
-0.288 -0.309 -0.39 
0.174 -0.256 -0.311 
0.03 -0.39 0.199 
0.054 -0.081 -0.053 
0.217 -0.335 -0.179 
0.311 -0.265 -0.322 
-0.066 -0.399 0.082 
0.08500000000000001 -0.004 0.164 
0.25 -0.232 0.033 
-0.288 -0.216 -0.256 
0.257 -0.246 -0.363 
0.103 -0.043 0.184 
0.253 -0.196 -0.231 
0.073 0.215 0.401 
0.319 -0.274 -0.185 
0.103 -0.06 0.126 
0.008999999999999999 0.204 -0.01 
0.262 -0.243 -0.356 
-0.241 -0.245 0.031 
-0.14 -0.083 0.012 
0.118 -0.07000000000000001 0.24 
0.07000000000000001 -0.134 0.327 
0.041 -0.35 0.259 
0.093 0.214 0.079 
-0.214 -0.222 0.081 
0.048 -0.402 0.047 
0.021 -0.26 -0.313 
0.148 -0.281 -0.195 
-0.214 -0.24 -0.341 
-0.041 -0.08 -0.076 
0.037 0.254 0.256 
-0.06900000000000001 -0.08 -0.023 
0.24 -0.211 -0.103 
0.103 0.21 0.081 
0.08699999999999999 -0.334 0.264 
0.035 -0.296 -0.282 
-0.001 -0.196 0.341 
0.134 -0.08699999999999999 0.252 
0.1 0.054 0.191 
0.118 -0.28 0.291 
-0.134 -0.277 -0.244 
0.123 -0.302 0.276 
-0.314 -0.296 -0.276 
0.089 -0.048 0.161 
-0.013 -0.055 -0.213 
0.158 -0.176 -0.253 
0.031 -0.022 -0.415 
-0.033 -0.016 -0.356 
0.191 -0.224 -0.179 
0.245 -0.245 0.03 
-0.297 -0.274 -0.144 
-0.179 -0.317 -0.308 
-0.098 0.001 0.186 
-0.259 -0.187 -0.199 
-0.227 -0.254 -0.379 
0.057 -0.001 0.138 
-0.206 -0.27 -0.39 
0.004 0.25 0.288 
-0.077 0.211 0.08599999999999999 
-0.198 -0.303 -0.118 
-0.191 -0.289 -0.128 
0.321 -0.272 -0.222 
0.179 -0.27 -0.345 
0.102 0.055 0.213 
-0.113 0.181 0.103 
-0.24 -0.217 0.149 
-0.244 -0.217 -0.287 
-0.092 -0.274 -0.273 
-0.206 -0.342 0.1 
0.265 -0.238 -0.341 
0.156 -0.082 0.225 
0.175 -0.203 -0.173 
0.08799999999999999 0.192 0.102 
0.311 -0.22 -0.184 
0.148 -0.096 0.254 
-0.062 0.316 0.131 
-0.004 0.074 -0.007 
-0.236 -0.29 0.036 
0.118 0.251 0.104 
0.05 -0.276 0.315 
0.195 -0.239 -0.317 
0.202 -0.336 -0.354 
0.024 -0.404 0.139 
0.243 -0.301 0.117 
0.1 0.018 0.194 
-0.275 -0.325 -0.405 
0.23 -0.234 -0.108 
0.173 -0.112 0.244 
0.054 0.12 0.08699999999999999 
0.254 -0.258 -0.113 
-0.308 -0.299 -0.186 
0.094 0.019 0.179 
-0.264 -0.222 -0.295 
-0.082 -0.05 0.155 
0.109 0.181 0.11 
-0.027 -0.36 0.248 
0.211 -0.21 -0.145 
0.205 -0.271 -0.391 
0.07000000000000001 0.241 0.076 
-0.01 0.233 -0.006 
0.238 -0.243 -0.36 
-0.281 -0.328 -0.246 
-0.193 -0.281 0.238 
-0.2 -0.265 0.078 
-0.217 -0.333 -0.168 
0.3 -0.265 -0.353 
-0.038 -0.079 -0.025 
-0.145 -0.075 0.104 
0.255 -0.218 0.177 
0.091 -0.055 0.156 
-0.051 -0.163 0.335 
0.184 -0.142 0.254 
-0.312 -0.269 -0.326 
-0.234 -0.197 -0.116 
-0.173 -0.228 -0.21 
-0.187 -0.308 -0.375 
-0.301 -0.281 -0.15 
0.163 -0.277 -0.186 
0.108 0.252 0.078 
0.136 -0.07199999999999999 0.23 
0.094 -0.079 -0.105 
0.1 0.02 0.247 
0.214 -0.179 -0.192 
-0.144 -0.298 -0.199 
0.015 -0.368 0.239 
-0.262 -0.255 0.131 
-0.315 -0.234 -0.174 
-0.049 -0.042 -0.303 
-0.07099999999999999 -0.112 -0.349 
0.074 -0.345 0.257 
0.251 -0.29 0.106 
-0.255 -0.185 -0.196 
-0.275 -0.336 -0.348 
0.146 -0.267 -0.2 
0.034 0.181 0.441 
0.036 0.05 0.369 
-0.008999999999999999 -0.39 0.197 
0.129 -0.155 0.302 
0.128 -0.136 0.295 
0.078 -0.234 0.324 
0.092 0.261 0.07099999999999999 
0.314 -0.271 -0.32 
0.265 -0.34 -0.332 
-0.154 -0.089 0.24 
0.013 -0.06900000000000001 0.07000000000000001 
-0.203 -0.293 -0.115 
-0.028 -0.074 -0.401 
-0.002 -0.354 0.252 
-0.043 -0.277 0.316 
0.101 -0.317 0.274 
-0.177 -0.297 -0.143 
-0.142 -0.267 -0.243 
-0.236 -0.234 -0.337 
0.25 -0.19 0.177 
0.03 -0.371 0.235 
0.191 -0.21 -0.14 
-0.284 -0.277 -0.39 
0.287 -0.261 -0.367 
-0.07000000000000001 -0.079 0.002 
-0.274 -0.203 0.058 
0.096 -0.14 0.305 
0.287 -0.215 -0.254 
-0.032 -0.068 0.073 
0.031 -0.202 -0.345 
0.225 -0.252 -0.376 
0.229 -0.252 0.036 
0.227 -0.309 -0.447 
0.102 0.264 0.168 
0.17 -0.207 -0.179 
0.255 -0.263 -0.114 
0.184 -0.278 -0.148 
0.083 -0.054 0.298 
-0.094 0.013 0.178 
0.246 -0.246 -0.367 
0.197 -0.193 -0.16 
0.239 -0.201 -0.127 
0.054 0.217 0.263 
-0.303 -0.221 -0.168 
-0.16 -0.303 -0.168 
-0.286 -0.214 -0.252 
-0.019 -0.099 -0.391 
0.318 -0.236 -0.228 
0.226 -0.334 -0.161 
-0.1 0.028 0.195 
-0.288 -0.322 -0.21 
-0.047 -0.058 -0.392 
-0.011 0.296 0.228 
-0.068 -0.068 -0.344 
0.056 -0.4 -0.04 
0.242 -0.221 -0.08599999999999999 
0.206 -0.226 -0.297 
-0.257 -0.284 0.024 
0.279 -0.269 -0.387 
0.182 -0.32 -0.204 
-0.208 -0.221 -0.286 
0.177 -0.257 -0.181 
0.093 -0.023 0.171 
0.005 -0.269 0.322 
0.2 -0.272 0.076 
-0.015 -0.02 -0.325 
0.263 -0.271 0.022 
0.295 -0.231 -0.284 
-0.018 -0.053 -0.219 
-0.08699999999999999 0.206 0.08500000000000001 
0.129 -0.097 -0.271 
-0.214 -0.342 -0.36 
0.115 -0.114 -0.306 
0.224 -0.215 -0.279 
0.07000000000000001 -0.398 0.096 
-0.201 -0.251 0.11 
0.129 -0.083 -0.195 
0.01 -0.278 0.319 
-0.206 -0.305 0.092 
0.282 -0.292 -0.136 
0.17 -0.365 0.05 
-0.031 0.037 0.36 
0.034 -0.403 0.06 
-0.012 0.345 0.055 
0.181 -0.257 -0.33 
0.219 -0.311 0.061 
0.218 -0.253 -0.112 
-0.287 -0.305 0.021 
-0.013 0.081 0.08 
-0.32 -0.254 -0.249 
-0.061 -0.049 -0.289 
-0.124 0.181 0.118 
-0.246 -0.204 0.059 
0.157 -0.242 -0.156 
0.238 -0.287 -0.433 
0.074 0.25 0.074 
-0.273 -0.272 -0.123 
-0.246 -0.182 -0.192 
-0.011 -0.175 -0.361 
-0.311 -0.286 0.015 
-0.155 -0.353 -0.06900000000000001 
0.006 -0.324 0.283 
0.179 -0.316 -0.285 
0.003 -0.246 0.332 
0.092 0.228 0.074 
-0.107 -0.148 0.307 
-0.172 -0.204 -0.186 
-0.017 0.221 0.03 
0.174 -0.233 -0.137 
0.127 0.223 0.1 
0.095 -0.326 0.269 
-0.272 -0.298 -0.42 
0.317 -0.284 -0.187 
0.005 0.005 -0.404 
-0.07000000000000001 -0.399 -0.007 
-0.245 -0.338 -0.426 
0.248 -0.189 -0.058 
0.32 -0.267 -0.191 
-0.102 0.018 0.202 
0.237 -0.187 -0.21 
0.035 -0.33 0.278 
-0.079 -0.07000000000000001 -0.311 
0.262 -0.223 -0.298 
0.251 -0.15 0.12 
-0.208 -0.225 -0.119 
0.224 -0.313 -0.447 
0.198 -0.255 -0.358 
-0.012 -0.064 0.081 
0.188 -0.202 -0.154 
-0.266 -0.245 -0.357 
-0.199 -0.206 -0.17 
-0.209 -0.297 0.124 
0.104 0.13 0.365 
0.057 -0.398 0.164 
0.037 -0.145 0.344 
-0.318 -0.268 -0.182 
0.273 -0.194 0.044 
0.314 -0.296 -0.286 
0.165 -0.269 -0.297 
0.204 -0.276 0.066 
-0.174 -0.202 -0.198 
-0.173 -0.292 -0.153 
0.242 -0.239 -0.349 
0.296 -0.32 -0.338 
0.243 -0.297 0.129 
-0.304 -0.293 0.016 
-0.095 -0.019 0.176 
-0.288 -0.314 -0.388 
-0.18 -0.236 -0.192 
0.289 -0.31 -0.163 
-0.099 -0.148 -0.325 
-0.242 -0.254 -0.383 
0.241 -0.215 -0.092 
-0.188 -0.283 -0.135 
0.032 -0.403 0.127 
0.004 -0.021 -0.428 
0.08799999999999999 -0.08 -0.08799999999999999 
-0.146 -0.07199999999999999 0.22 
0.089 -0.013 0.168 
-0.199 -0.209 -0.135 
0.095 0.01 0.182 
0.163 -0.237 -0.148 
0.122 0.181 0.103 
0.099 0.027 0.19 
0.125 0.223 0.094 
-0.304 -0.211 -0.198 
-0.222 -0.303 0.051 
-0.201 -0.289 0.081 
0.046 -0.336 0.272 
0.06900000000000001 -0.279 0.309 
0.2 -0.334 -0.334 
0.091 0.03 0.265 
-0.068 -0.241 -0.309 
-0.004 -0.382 0.213 
0.193 -0.234 -0.169 
-0.051 -0.37 -0.174 
0.195 -0.322 -0.385 
-0.183 -0.095 0 
0.224 -0.321 0.074 
0.116 -0.148 0.304 
0.158 -0.286 -0.158 
0.234 -0.254 -0.082 
0.179 -0.291 -0.356 
0.042 -0.402 0.08400000000000001 
0.137 -0.304 0.268 
0.271 -0.243 -0.349 
-0.148 -0.257 -0.234 
0.098 0.094 0.169 
0.137 -0.064 0.202 
0.198 -0.279 0.101 
-0.199 -0.27 0.077 
-0.261 -0.266 -0.398 
-0.011 0.189 0.023 
-0.251 -0.184 -0.178 
-0.203 -0.203 -0.166 
0.186 -0.245 -0.319 
0.102 0.193 0.147 
-0.201 -0.254 -0.14 
0.277 -0.21 -0.252 
0.309 -0.259 -0.32 
0.135 -0.377 0.135 
-0.013 -0.078 0.024 
0.199 -0.19 -0.163 
-0.167 -0.08699999999999999 0.217 
0.177 -0.279 -0.348 
0.153 -0.369 0.139 
-0.023 0.051 0.106 
-0.278 -0.274 0.022 
-0.173 -0.276 -0.169 
-0.26 -0.302 -0.126 
0.289 -0.322 -0.37 
-0.316 -0.28 -0.181 
0.093 0.19 0.101 
0.267 -0.246 -0.358 
-0.24 -0.234 -0.109 
-0.054 -0.369 0.231 
0.118 0.222 0.145 
-0.035 0.297 0.23 
0.205 -0.274 0.061 
0.1 -0.309 0.281 
0.227 -0.258 -0.108 
-0.177 -0.096 -0.041 
0.216 -0.315 0.08 
-0.141 -0.08500000000000001 -0.008999999999999999 
-0.079 -0.028 0.154 
0.319 -0.284 -0.206 
0.002 0.021 0.331 
-0.191 -0.275 0.244 
-0.298 -0.281 0.018 
0.008 -0.394 0.189 
0.227 -0.346 -0.388 
0.018 -0.081 -0.073 
0.161 -0.227 -0.244 
-0.244 -0.34 -0.289 
-0.016 -0.059 0.116 
-0.002 -0.029 -0.295 
-0.232 -0.254 -0.381 
-0.137 -0.079 0.239 
-0.208 -0.285 -0.113 
-0.1 0.292 0.114 
0.155 -0.287 -0.266 
-0.223 -0.299 0.047 
0.216 -0.333 0.108 
0.106 -0.289 0.291 
0.172 -0.219 -0.151 
0.028 -0.403 0.148 
-0.207 -0.268 0.058 
-0.322 -0.271 -0.22 
-0.277 -0.331 -0.381 
0.292 -0.283 -0.383 
0.249 -0.27 -0.41 
0.003 -0.333 0.275 
-0.372 -0.339 0.122 
-0.005 -0.404 0.08599999999999999 
0.01 -0.035 0.12 
0.229 -0.305 -0.001 
-0.208 -0.325 0.168 
0.295 -0.251 -0.338 
0.159 -0.315 -0.178 
0.121 0.242 0.101 
0.133 0.208 0.107 
-0.045 0.041 0.348 
0.015 -0.32 0.288 
0.076 0.291 0.082 
0.187 -0.118 -0.144 
0.042 -0.388 0.202 
-0.277 -0.277 -0.125 
0.064 -0.399 0.098 
0.238 -0.25 -0.374 
0.263 -0.221 -0.125 
0.246 -0.339 -0.424 
-0.245 -0.326 0.055 
0.21 -0.237 -0.33 
-0.265 -0.269 -0.401 
0.082 0.011 0.16 
0.033 0.269 0.077 
0.021 -0.339 0.271 
0.217 -0.266 -0.111 
-0.223 -0.208 0.101 
-0.19 -0.271 -0.144 
0.204 -0.211 0.247 
-0.259 -0.252 -0.376 
0.235 -0.291 -0.437 
-0.166 -0.3 -0.286 
0.286 -0.281 -0.39 
-0.206 -0.223 0.246 
0.289 -0.293 -0.391 
0.283 -0.311 -0.153 
0.101 0.075 0.217 
-0.263 -0.228 -0.315 
-0.203 -0.241 0.091 
0.23 -0.342 -0.423 
0.251 -0.333 0.079 
0.189 -0.242 -0.316 
0.219 -0.342 -0.317 
-0.137 0.198 0.119 
0.113 0.258 0.143 
-0.008999999999999999 0.328 0.037 
-0.058 -0.059 0.134 
0.122 0.232 0.093 
0.097 -0.38 0.189 
-0.242 -0.323 -0.443 
-0.198 -0.276 0.095 
0.191 -0.327 -0.246 
0.267 -0.202 -0.239 
0.125 -0.381 0.141 
-0.148 -0.291 0.269 
0.11 0.26 0.08599999999999999 
0.041 -0.369 0.235 
0.017 0.295 0.08400000000000001 
0.001 -0.03 0.349 
-0.23 -0.331 0.114 
-0.36 -0.254 0.15 
0.106 -0.3 0.285 
0.019 -0.404 0.113 
-0.305 -0.235 0.031 
0.133 -0.349 -0.124 
0.061 -0.205 -0.333 
0.319 -0.264 -0.277 
0.046 -0.043 0.124 
-0.054 -0.257 0.323 
-0.063 -0.057 0.13 
0.073 -0.397 0.135 
-0.182 -0.096 -0.026 
0.101 -0.38 0.186 
0.145 -0.33 0.239 
-0.282 -0.303 0.022 
0.29 -0.323 -0.26 
-0.298 -0.239 -0.303 
-0.141 -0.253 -0.256 
-0 -0.032 -0.285 
-0.012 -0.37 0.235 
0.096 0.196 0.09 
0.243 -0.333 0.08799999999999999 
0.001 -0.042 -0.244 
0.201 -0.287 0.107 
-0 -0.016 0.121 
0.028 -0.178 0.337 
-0.102 -0.053 0.16 
0.105 -0.319 0.271 
0.114 -0.343 0.243 
-0.155 -0.307 -0.176 
-0.199 -0.28 0.08599999999999999 
-0.299 -0.225 -0.158 
0.191 -0.243 -0.321 
0.094 -0.119 -0.332 
0.151 -0.293 0.266 
0.03 -0.301 0.302 
0.216 -0.254 -0.372 
0.187 -0.196 -0.167 
0.099 -0.181 0.321 
-0.209 -0.322 -0.431 
0.097 -0.393 0.08400000000000001 
0.204 -0.266 -0.381 
-0.257 -0.343 -0.394 
-0.04 -0.268 0.321 
-0.21 -0.239 -0.337 
-0.257 -0.325 -0.434 
-0.319 -0.244 -0.192 
-0.211 -0.229 0.12 
-0.238 -0.239 -0.35 
0.135 -0.08699999999999999 -0.217 
0.23 -0.197 -0.129 
-0.296 -0.273 -0.368 
0.044 -0.402 0.079 
0.106 0.205 0.083 
0.056 -0.4 0.144 
0.25 -0.269 -0.113 
0.092 -0.284 0.299 
-0.207 -0.231 0.091 
-0.264 -0.214 -0.272 
0.025 -0.404 0.056 
0.177 -0.317 -0.202 
-0.28 -0.275 -0.393 
-0.251 -0.344 -0.327 
0.152 -0.131 0.279 
-0.203 -0.26 -0.372 
0.083 0.059 0.27 
0.016 0.036 0.369 
0.28 -0.261 -0.375 
-0.032 -0.07199999999999999 0.057 
0.182 -0.171 0.267 
-0.238 -0.25 0.031 
-0.078 0.024 0.153 
-0.056 -0.02 0.136 
0.279 -0.329 -0.241 
-0.225 -0.236 -0.337 
0.316 -0.231 -0.201 
-0.126 -0.307 -0.222 
0.211 -0.295 0.06 
0.291 -0.259 -0.136 
0.243 -0.344 -0.321 
-0.319 -0.28 -0.248 
0.27 -0.281 -0.411 
-0.065 -0.052 -0.286 
0.18 -0.266 -0.341 
-0.24 -0.347 -0.391 
0.07000000000000001 -0.293 0.301 
-0.091 -0.054 0.142 
-0.164 -0.288 -0.298 
-0.229 -0.21 0.068 
0.242 -0.347 -0.346 
-0.027 -0.092 -0.392 
0.222 -0.209 -0.265 
0.001 -0.241 0.333 
-0.067 0.213 0.083 
0.081 -0.393 0.156 
-0.205 -0.25 0.127 
0.181 -0.291 -0.361 
0.156 -0.227 -0.2 
-0.014 -0.241 0.334 
0.044 0.026 0.124 
0.2 -0.144 0.236 
0.23 -0.346 -0.405 
-0.242 -0.308 -0.124 
0.266 -0.306 -0.429 
0.095 -0.044 0.165 
-0.193 -0.31 -0.393 
0.07199999999999999 -0.075 -0.137 
0.184 -0.203 -0.156 
-0.219 -0.111 0.052 
-0.24 -0.263 -0.4 
0.286 -0.208 -0.237 
-0.053 -0.354 0.252 
0.103 -0.07099999999999999 -0.223 
0.21 -0.328 -0.149 
0.08400000000000001 0.291 0.17 
0.08500000000000001 0.167 0.285 
0.213 -0.191 -0.221 
-0.254 -0.199 -0.142 
-0.013 -0.343 0.266 
-0.211 -0.34 0.091 
0.093 0.03 0.174 
0.305 -0.287 -0.356 
-0.078 -0.397 0.012 
-0.058 -0.078 0.019 
-0.02 -0.048 0.12 
-0.073 0.302 0.167 
-0.141 -0.27 -0.24 
0.103 -0.389 -0.003 
-0.24 -0.245 -0.365 
0.247 -0.339 -0.248 
0.116 -0.136 0.298 
0.143 -0.077 0.081 
0.132 -0.13 0.29 
-0.229 -0.331 0.099 
0.094 0.223 0.075 
-0.254 -0.187 -0.207 
-0.172 -0.269 -0.179 
0.298 -0.29 -0.373 
0.101 -0.031 0.18 
0.235 -0.226 -0.312 
-0.038 -0.081 -0.07099999999999999 
0.282 -0.309 -0.4 
-0.139 -0.066 0.217 
0.181 -0.232 -0.192 
0.229 -0.189 -0.13 
0.237 -0.245 -0.08699999999999999 
0.228 -0.268 -0.404 
-0.074 -0.08 -0.078 
-0.115 -0.365 -0.114 
0.122 0.188 0.131 
0.258 -0.337 -0.416 
-0.006 -0.286 0.313 
0.08500000000000001 -0.278 0.305 
0.235 -0.256 -0.092 
